ncols         180
nrows         52
xllcorner     0
yllcorner     760
cellsize      20.0
NODATA_value  -9999.0
997.6104 997.6104 999.4392 1001.2679999999999 1003.0967999999999 1003.0967999999999 1002.1823999999999 1002.1823999999999 1001.2679999999999 1000.3535999999999 999.4392 997.6104 996.6960000000001 995.7816 994.8672000000001 993.9528 993.0384000000001 991.2096000000001 990.2952 988.4664 988.4664 988.4664 988.4664 986.6376 984.8088 982.98 981.1512 0.0 0.0 0.0 0.0 0.0 0.0 0.0 0.0 0.0 0.0 0.0 0.0 960.1200000000001 956.4624000000001 953.7192 950.0616 946.404 943.6608000000001 940.0032000000001 936.3456000000001 935.4312 933.6024 931.7736 930.8592000000001 929.9448 928.116 927.2016000000001 926.2872 925.3728000000001 922.6296 919.8864000000001 917.1432 610.8192 610.2096 609.6 607.7712 605.3328 0.0 0.0 0.0 901.5984000000001 900.684 900.684 899.7696000000001 900.684 900.684 900.684 900.9581999999999 901.1412 901.3242 901.5984000000001 901.5984000000001 901.5984000000001 0.0 0.0 0.0 0.0 0.0 0.0 0.0 0.0 899.7696000000001 901.5984000000001 903.4272000000001 905.2560000000001 907.9992 910.7424000000001 912.5712000000001 913.4856 914.4000000000001 913.4856 912.5712000000001 911.6568 909.828 906.1704 902.5128 898.8552 895.1976 891.54 886.9680000000001 880.5672 872.3376000000001 864.108 853.1351999999999 841.248 829.3607999999999 816.5591999999999 802.8432 790.9559999999999 780.8976 772.6679999999999 764.4384 758.0376 753.4656 752.1855 502.3104 505.3584 508.4064 512.6736 516.9408 521.8176 526.6944 531.5712 537.0576 543.7632 826.6176 837.5904 563.88 568.7568 573.6336 577.2912 580.9488 583.9968 584.6064 585.216 584.6064 580.9488 576.072 855.8784 843.9911999999999 831.1895999999999 818.3879999999999 804.672 790.0416 777.24 766.2672 756.2088 497.4336 492.5568 488.2896 484.0224 481.584 479.7552 478.536 477.3168 476.7072 476.7072 477.9264 719.6328 722.376 726.0336 729.6912 734.2632 737.9208 741.5784 745.236 750.7224 756.2088 761.6952 768.096 774.4967999999999 779.9831999999999 781.8119999999999
997.1532000000001 997.6104 999.4392 1002.1823999999999 1004.9255999999999 1004.9255999999999 1004.0111999999999 1004.0111999999999 1003.0967999999999 1002.1823999999999 1001.2679999999999 1000.3535999999999 998.5248000000001 997.6104 996.6960000000001 996.6960000000001 995.7816 994.8672000000001 993.0384000000001 992.124 992.124 991.2096000000001 991.2096000000001 989.3808000000001 987.5520000000001 985.7232000000001 983.8944000000001 0.0 0.0 0.0 0.0 0.0 0.0 0.0 0.0 0.0 0.0 0.0 0.0 961.9488000000001 959.2056 955.548 951.8904 949.1472000000001 945.4896000000001 941.8320000000001 938.1744000000001 936.3456000000001 934.5168000000001 932.6880000000001 930.8592000000001 929.9448 928.116 928.116 927.2016000000001 926.2872 924.4584 922.6296 920.8008 919.8864000000001 612.648 611.4288 609.6 607.7712 0.0 0.0 904.3416 903.4272000000001 902.5128 901.5984000000001 901.5984000000001 901.5984000000001 901.1412 901.1412 901.3242 901.5984000000001 901.5984000000001 901.5984000000001 902.0556 901.5984000000001 901.5984000000001 0.0 0.0 0.0 0.0 0.0 0.0 0.0 0.0 0.0 903.4272000000001 905.2560000000001 907.9992 909.828 911.6568 912.5712000000001 912.5712000000001 911.6568 910.7424000000001 908.9136000000001 907.0848000000001 904.3416 901.5984000000001 897.9408000000001 894.2832000000001 890.6256000000001 886.0536 879.6528000000001 872.3376000000001 864.108 854.0496 843.0768 832.104 820.2167999999999 807.4151999999999 795.528 785.4695999999999 776.3255999999999 767.1816 760.7808 754.38 752.094 501.7008 503.5296 505.968 510.2352 513.8928 518.7696 523.6464 528.5232 534.6192 541.9344 550.4688 557.784 563.88 569.3664 574.2432 578.5104 582.168 585.216 586.4352 587.0448 587.0448 583.9968 869.5944 862.2792 851.3063999999999 837.5904 824.7888 810.1584 795.528 781.8119999999999 769.9248 759.8664 749.808 494.3856 489.5088 485.2416 482.1936 480.3648 478.536 477.3168 476.0976 476.0976 476.0976 716.8896 718.7184 722.376 726.0336 729.6912 733.3488 737.0064 740.664 745.236 749.808 754.38 759.8664 766.2672 770.8391999999999 771.7536
996.6960000000001 996.6960000000001 998.5248000000001 1002.1823999999999 1004.0111999999999 1004.9255999999999 1004.9255999999999 1004.9255999999999 1004.0111999999999 1003.0967999999999 1003.0967999999999 1002.1823999999999 1001.2679999999999 1000.3535999999999 999.4392 998.5248000000001 997.6104 996.6960000000001 994.8672000000001 993.9528 993.0384000000001 993.0384000000001 992.124 991.2096000000001 989.3808000000001 987.5520000000001 986.6376 984.8088 0.0 0.0 0.0 0.0 0.0 0.0 0.0 0.0 0.0 0.0 0.0 0.0 0.0 0.0 953.7192 950.0616 946.404 942.7464 940.0032000000001 937.26 935.4312 0.0 0.0 0.0 0.0 0.0 927.2016000000001 926.7444 925.3728000000001 923.5440000000001 921.7152000000001 920.8008 613.2576 612.648 610.8192 608.9904 0.0 0.0 907.0848000000001 905.2560000000001 904.3416 903.4272000000001 902.5128 901.5984000000001 901.5984000000001 901.5984000000001 901.5984000000001 901.5984000000001 902.5128 902.5128 902.5128 902.5128 901.5984000000001 901.5984000000001 0.0 0.0 0.0 0.0 0.0 0.0 0.0 0.0 0.0 0.0 0.0 908.9136000000001 909.828 909.828 908.9136000000001 907.9992 907.0848000000001 906.1704 905.2560000000001 902.5128 899.7696000000001 897.0264 893.3688 889.7112 885.1392000000001 878.7384 871.4232 863.1936000000001 854.0496 843.9911999999999 833.0183999999999 822.0455999999999 811.9872 801.0144 790.9559999999999 780.8976 771.7536 764.4384 758.0376 753.4656 751.6368 502.3104 503.5296 507.1872 511.4544 516.3312 521.208 526.6944 532.7904 540.1056 548.64 555.9552 562.0512 567.5376 573.024 577.9008 582.7776 586.4352 588.8736 590.7024 590.7024 588.264 875.9952000000001 868.6800000000001 858.6216 846.7344 833.9328 818.3879999999999 802.8432 787.2983999999999 775.4112 763.524 753.4656 496.824 491.9472 487.68 484.0224 481.584 479.1456 477.3168 476.0976 0.0 0.0 714.1464 715.9752 718.7184 722.376 726.0336 728.7768 732.4344 735.1776 739.7496 745.236 749.808 754.38 758.952 763.524 764.4384
331.9272 331.9272 998.5248000000001 1000.3535999999999 1003.0967999999999 1004.0111999999999 1004.9255999999999 1004.9255999999999 1004.9255999999999 1004.9255999999999 1004.0111999999999 1004.0111999999999 1003.0967999999999 0.0 0.0 0.0 0.0 998.5248000000001 996.6960000000001 994.8672000000001 993.9528 993.9528 993.0384000000001 991.2096000000001 990.2952 989.3808000000001 988.4664 987.5520000000001 0.0 0.0 0.0 0.0 0.0 0.0 0.0 0.0 0.0 0.0 0.0 0.0 0.0 0.0 0.0 0.0 0.0 0.0 0.0 0.0 0.0 0.0 0.0 0.0 0.0 0.0 0.0 0.0 926.2872 924.4584 923.5440000000001 921.7152000000001 920.8008 613.2576 611.4288 610.2096 0.0 910.7424000000001 908.9136000000001 907.9992 906.1704 904.3416 903.4272000000001 902.5128 902.5128 902.5128 902.5128 902.5128 902.5128 902.97 902.7869999999999 902.5128 902.5128 901.5984000000001 901.5984000000001 901.5984000000001 0.0 0.0 0.0 0.0 0.0 0.0 0.0 0.0 0.0 0.0 907.9992 907.0848000000001 905.2560000000001 904.3416 903.4272000000001 903.4272000000001 902.5128 900.684 897.9408000000001 895.1976 891.54 888.7968000000001 884.2248 877.8240000000001 871.4232 863.1936000000001 854.0496 843.9911999999999 834.8471999999999 824.7888 815.6448 805.5863999999999 795.528 785.4695999999999 775.4112 769.0103999999999 763.524 758.0376 755.2944 750.7224 501.7008 504.7488 509.016 513.8928 519.3792 525.4752 531.5712 538.8864 546.2016 553.5168 560.2224 566.3184 571.8048 577.2912 582.168 587.0448 590.7024 593.7504 595.5792 889.7112 882.396 875.9952000000001 865.9368 855.8784 843.9911999999999 827.5319999999999 810.1584 793.6992 779.9831999999999 767.1816 756.2088 747.9792 494.3856 490.1184 486.4608 482.8032 479.7552 478.536 476.7072 475.488 0.0 0.0 0.0 715.0608 718.7184 721.4616 724.2048 726.948 730.6056 735.1776 740.664 746.1504 749.808 753.4656 757.1232 758.0376
331.6224 331.6224 332.5368 999.4392 1002.1823999999999 1004.0111999999999 1004.9255999999999 1005.8399999999999 1005.8399999999999 1005.8399999999999 1005.8399999999999 0.0 0.0 0.0 0.0 0.0 0.0 0.0 0.0 996.6960000000001 995.7816 993.9528 993.0384000000001 992.124 991.2096000000001 991.2096000000001 990.2952 989.3808000000001 988.4664 986.6376 0.0 0.0 0.0 0.0 0.0 0.0 0.0 0.0 0.0 0.0 0.0 0.0 0.0 0.0 0.0 0.0 0.0 0.0 0.0 0.0 0.0 0.0 0.0 0.0 0.0 0.0 0.0 925.3728000000001 924.4584 923.5440000000001 921.7152000000001 613.8672 612.648 0.0 914.4000000000001 913.4856 911.6568 909.828 907.9992 906.1704 904.3416 903.4272000000001 903.4272000000001 903.4272000000001 903.4272000000001 903.4272000000001 903.4272000000001 903.4272000000001 903.4272000000001 903.4272000000001 902.5128 902.5128 902.0556 901.8725999999999 902.5128 902.5128 0.0 0.0 0.0 0.0 0.0 0.0 0.0 0.0 0.0 0.0 904.3416 901.5984000000001 900.684 900.684 900.684 898.8552 896.1120000000001 893.3688 890.6256000000001 886.9680000000001 883.3104000000001 877.8240000000001 870.5088000000001 864.108 854.9639999999999 844.9056 835.7616 827.5319999999999 819.3024 810.1584 800.0999999999999 789.1271999999999 779.9831999999999 772.6679999999999 767.1816 761.6952 756.2088 751.6368 749.808 502.3104 507.1872 511.4544 517.5504 523.6464 529.7424 537.0576 544.3728 551.0784 557.784 563.88 569.976 576.072 581.5584 587.0448 591.9216 596.1888 599.2368 895.1976 888.7968000000001 881.4816000000001 872.3376000000001 863.1936000000001 852.2208 835.7616 817.4736 799.1856 785.4695999999999 771.7536 759.8664 752.5512 746.1504 493.1664 489.5088 485.2416 481.584 479.1456 477.9264 476.0976 474.8784 0.0 0.0 0.0 715.0608 717.804 720.5472 722.376 726.0336 730.6056 737.0064 741.5784 745.236 747.9792 750.7224 750.7224
331.3176 331.3176 332.232 666.2928 1001.2679999999999 1003.0967999999999 1004.9255999999999 1005.8399999999999 1006.7543999999999 1006.7543999999999 0.0 0.0 0.0 0.0 0.0 0.0 0.0 0.0 0.0 0.0 0.0 994.8672000000001 993.9528 993.0384000000001 992.124 992.124 991.2096000000001 990.2952 989.3808000000001 988.4664 0.0 0.0 0.0 0.0 0.0 0.0 0.0 0.0 0.0 0.0 0.0 0.0 0.0 0.0 0.0 0.0 0.0 0.0 0.0 0.0 0.0 0.0 0.0 0.0 0.0 0.0 0.0 0.0 925.3728000000001 924.4584 615.696 615.0864 0.0 918.972 917.1432 915.3144 914.4000000000001 913.4856 910.7424000000001 907.9992 905.2560000000001 905.2560000000001 904.3416 904.3416 904.3416 904.3416 903.8844 903.6102 903.5187000000001 903.4272000000001 903.4272000000001 902.5128 902.5128 902.5128 903.4272000000001 904.3416 904.3416 904.3416 0.0 0.0 0.0 0.0 0.0 0.0 0.0 0.0 902.5128 900.684 899.7696000000001 899.7696000000001 898.8552 897.0264 895.1976 892.4544000000001 888.7968000000001 886.0536 882.396 876.9096 871.4232 865.0224000000001 855.8784 846.7344 837.5904 829.3607999999999 821.1312 812.9015999999999 802.8432 792.7847999999999 782.7264 775.4112 768.096 761.6952 756.2088 750.7224 749.3508 501.0912 505.3584 509.6256 515.112 521.208 527.304 534.0096 541.3248 548.64 554.736 561.4416 567.5376 573.6336 579.12 584.6064 590.0928 595.5792 898.8552 896.1120000000001 891.54 886.0536 877.8240000000001 867.7656 856.7927999999999 839.4192 821.1312 803.7575999999999 790.0416 777.24 766.2672 758.0376 751.6368 746.1504 739.7496 488.8992 485.2416 482.1936 479.7552 477.3168 475.488 0.0 0.0 0.0 713.232 715.9752 717.804 719.6328 723.2904 727.8624 733.3488 738.8352 741.5784 742.4928 744.3216 744.3216
331.0128 331.0128 331.9272 665.6832 667.512 1003.0967999999999 1004.9255999999999 1006.7543999999999 1007.6687999999999 1007.6687999999999 1007.6687999999999 0.0 0.0 0.0 1005.8399999999999 1004.9255999999999 1004.0111999999999 0.0 0.0 0.0 0.0 0.0 994.8672000000001 993.9528 993.0384000000001 992.124 992.124 991.2096000000001 990.2952 989.3808000000001 0.0 0.0 0.0 0.0 0.0 0.0 0.0 0.0 0.0 0.0 0.0 0.0 0.0 0.0 0.0 0.0 0.0 0.0 0.0 0.0 0.0 0.0 0.0 0.0 0.0 0.0 0.0 0.0 0.0 0.0 0.0 0.0 922.6296 920.8008 919.8864000000001 918.972 918.0576000000001 916.2288000000001 913.4856 909.828 907.0848000000001 906.1704 906.1704 905.2560000000001 905.2560000000001 904.3416 904.3416 903.8844 903.7013999999999 903.6102 903.4272000000001 902.97 902.6958 903.4272000000001 905.2560000000001 907.0848000000001 907.9992 907.9992 907.9992 0.0 0.0 0.0 0.0 0.0 0.0 0.0 903.4272000000001 901.5984000000001 899.7696000000001 898.8552 897.9408000000001 896.1120000000001 893.3688 891.54 887.8824 885.1392000000001 881.4816000000001 876.9096 872.3376000000001 865.9368 857.7072000000001 847.6487999999999 838.5047999999999 831.1895999999999 822.96 815.6448 805.5863999999999 795.528 786.384 777.24 769.0103999999999 760.7808 755.2944 750.7224 748.8936 500.4816 504.1392 507.7968 513.2832 518.7696 524.8656 531.5712 538.2768 545.592 551.688 558.3936 564.4896 570.5856 576.072 581.5584 880.5672 889.7112 896.1120000000001 896.1120000000001 894.2832000000001 890.6256000000001 881.4816000000001 871.4232 859.5360000000001 842.1623999999999 823.8743999999999 807.4151999999999 794.6135999999999 783.6407999999999 772.6679999999999 765.3528 758.0376 751.6368 745.236 739.7496 734.2632 485.2416 481.584 477.9264 476.0976 0.0 0.0 0.0 712.3176 713.232 715.9752 717.804 720.5472 725.1192 730.6056 735.1776 737.0064 737.9208 737.9208 738.8352
330.708 330.8604 331.6224 332.5368 667.512 668.7312 1005.8399999999999 1007.6687999999999 1007.6687999999999 1008.5831999999999 1008.5831999999999 1008.5831999999999 1008.5831999999999 1008.5831999999999 1007.6687999999999 1005.8399999999999 1004.9255999999999 1003.0967999999999 0.0 0.0 0.0 0.0 995.7816 994.8672000000001 993.9528 993.0384000000001 993.0384000000001 991.2096000000001 991.2096000000001 990.2952 0.0 0.0 0.0 0.0 0.0 0.0 0.0 0.0 0.0 0.0 0.0 0.0 0.0 0.0 0.0 0.0 0.0 0.0 0.0 0.0 0.0 0.0 0.0 0.0 0.0 0.0 0.0 0.0 0.0 0.0 0.0 926.2872 924.4584 922.6296 921.7152000000001 920.8008 920.8008 919.8864000000001 916.2288000000001 912.5712000000001 909.828 907.9992 907.0848000000001 906.1704 906.1704 905.2560000000001 904.3416 904.3416 904.3416 903.9759000000001 903.4272000000001 903.4272000000001 903.4272000000001 905.2560000000001 907.0848000000001 909.828 910.7424000000001 911.6568 911.6568 912.5712000000001 0.0 0.0 0.0 0.0 0.0 0.0 0.0 901.5984000000001 899.7696000000001 898.8552 897.0264 895.1976 893.3688 890.6256000000001 887.8824 884.2248 880.5672 876.9096 872.3376000000001 866.8512000000001 858.6216 849.4775999999999 840.3335999999999 833.0183999999999 825.7031999999999 818.3879999999999 809.2439999999999 799.1856 789.1271999999999 779.9831999999999 769.9248 761.6952 755.2944 750.7224 747.9792 499.872 502.3104 505.3584 510.8448 516.3312 521.8176 528.5232 535.2288 541.9344 548.64 555.3456 561.4416 850.392 858.6216 866.8512000000001 876.9096 886.0536 894.2832000000001 896.1120000000001 896.1120000000001 893.3688 885.1392000000001 875.0808 863.1936000000001 846.7344 828.4464 811.9872 800.0999999999999 790.0416 779.9831999999999 772.6679999999999 765.3528 758.0376 752.5512 747.0648 741.5784 734.2632 726.948 480.3648 477.9264 0.0 0.0 0.0 474.2688 712.3176 714.1464 715.9752 717.804 722.376 727.8624 732.4344 733.3488 733.3488 733.3488 733.3488
330.6471 330.708 331.6224 332.5368 667.512 669.3408 670.56 1007.6687999999999 1008.5831999999999 1009.4975999999999 1010.4119999999999 1010.4119999999999 1010.4119999999999 1010.4119999999999 1009.4975999999999 1007.6687999999999 1006.7543999999999 0.0 0.0 0.0 0.0 0.0 0.0 995.7816 994.8672000000001 993.9528 993.9528 992.124 991.6668000000001 990.7524000000001 989.3808000000001 0.0 0.0 0.0 0.0 0.0 0.0 0.0 0.0 0.0 0.0 0.0 0.0 0.0 0.0 0.0 0.0 0.0 0.0 0.0 0.0 0.0 0.0 0.0 0.0 0.0 0.0 0.0 0.0 0.0 0.0 927.2016000000001 926.2872 924.4584 923.5440000000001 922.6296 922.6296 921.7152000000001 918.972 915.3144 912.5712000000001 910.7424000000001 909.828 908.9136000000001 907.0848000000001 906.1704 905.2560000000001 904.7988 904.3416 904.3416 904.3416 903.8844 904.3416 906.1704 908.9136000000001 911.6568 913.4856 913.4856 914.4000000000001 914.4000000000001 914.4000000000001 0.0 0.0 0.0 0.0 0.0 0.0 902.5128 900.684 898.8552 897.0264 895.1976 892.4544000000001 889.7112 886.9680000000001 884.2248 880.5672 875.9952000000001 872.3376000000001 867.7656 860.4504 854.0496 843.9911999999999 836.6759999999999 830.2752 822.96 813.816 804.672 794.6135999999999 785.4695999999999 775.4112 766.2672 758.952 753.4656 749.808 747.522 751.6368 502.92 507.7968 513.2832 519.3792 525.4752 532.1808 538.2768 817.4736 826.6176 835.7616 844.9056 853.1351999999999 862.2792 872.3376000000001 882.396 891.54 894.2832000000001 895.1976 894.2832000000001 887.8824 880.5672 870.5088000000001 854.0496 834.8471999999999 818.3879999999999 806.5008 796.4423999999999 787.2983999999999 779.9831999999999 772.6679999999999 766.2672 760.7808 757.1232 751.6368 743.4072 734.2632 726.0336 480.3648 477.3168 0.0 0.0 0.0 474.2688 474.8784 713.232 715.0608 719.6328 724.2048 727.8624 728.7768 728.7768 729.6912 729.6912
330.5556 330.708 331.6224 332.8416 333.756 669.3408 670.56 671.7792 672.9984 674.2176 674.8272 1012.2407999999999 1012.2407999999999 1012.2407999999999 1010.4119999999999 1010.4119999999999 1008.5831999999999 1006.7543999999999 0.0 0.0 0.0 0.0 0.0 996.6960000000001 995.7816 994.8672000000001 994.8672000000001 993.0384000000001 992.124 991.2096000000001 989.3808000000001 988.4664 0.0 0.0 0.0 0.0 0.0 0.0 0.0 0.0 0.0 0.0 0.0 0.0 0.0 0.0 0.0 0.0 0.0 0.0 0.0 0.0 0.0 0.0 0.0 0.0 0.0 0.0 0.0 0.0 0.0 928.116 927.2016000000001 926.2872 925.3728000000001 924.4584 923.5440000000001 922.6296 920.8008 918.972 611.4288 610.2096 913.4856 911.6568 909.828 907.0848000000001 905.2560000000001 905.2560000000001 905.2560000000001 905.2560000000001 905.2560000000001 904.3416 905.2560000000001 907.9992 911.6568 914.4000000000001 915.3144 916.2288000000001 917.1432 917.1432 917.1432 916.2288000000001 915.3144 0.0 0.0 0.0 0.0 0.0 900.684 898.8552 897.0264 894.2832000000001 892.4544000000001 889.7112 886.9680000000001 883.3104000000001 880.5672 875.9952000000001 872.3376000000001 867.7656 861.3648000000001 854.9639999999999 847.6487999999999 841.248 834.8471999999999 827.5319999999999 819.3024 810.1584 801.0144 790.9559999999999 780.8976 771.7536 764.4384 757.1232 751.6368 747.0648 499.872 500.4816 504.7488 510.2352 774.4967999999999 783.6407999999999 792.7847999999999 801.9287999999999 811.0727999999999 820.2167999999999 829.3607999999999 838.5047999999999 847.6487999999999 857.7072000000001 867.7656 878.7384 887.8824 891.54 893.3688 894.2832000000001 890.6256000000001 886.0536 878.7384 862.2792 843.0768 825.7031999999999 813.816 803.7575999999999 794.6135999999999 787.2983999999999 780.8976 774.4967999999999 770.8391999999999 767.1816 762.6096 753.4656 743.4072 733.3488 726.0336 479.1456 476.0976 474.8784 0.0 0.0 474.2688 474.2688 474.8784 715.9752 719.6328 723.2904 725.1192 726.0336 726.0336 726.948
330.4032 330.708 331.6224 332.8416 668.1216 669.3408 671.1696 672.3888 673.608 674.8272 675.4368 676.0464 1014.0695999999999 1013.1551999999999 1012.2407999999999 1011.3263999999999 1009.4975999999999 1007.6687999999999 0.0 0.0 0.0 0.0 0.0 998.5248000000001 996.6960000000001 995.7816 996.2388000000001 993.9528 991.2096000000001 990.7524000000001 989.3808000000001 988.4664 0.0 0.0 0.0 0.0 0.0 0.0 0.0 0.0 0.0 0.0 0.0 0.0 0.0 0.0 0.0 0.0 0.0 0.0 0.0 0.0 0.0 0.0 0.0 0.0 0.0 0.0 0.0 0.0 929.9448 929.9448 929.0304000000001 928.116 927.2016000000001 926.2872 925.3728000000001 924.4584 615.696 614.4768 613.2576 612.648 611.4288 914.4000000000001 911.6568 908.9136000000001 906.1704 906.1704 906.1704 906.1704 906.1704 905.2560000000001 906.1704 908.9136000000001 912.5712000000001 916.2288000000001 917.1432 918.0576000000001 918.972 918.972 918.972 918.972 918.0576000000001 917.1432 915.3144 911.6568 0.0 0.0 901.5984000000001 898.8552 897.0264 894.2832000000001 892.4544000000001 889.7112 886.9680000000001 884.2248 880.5672 876.9096 872.3376000000001 868.6800000000001 863.1936000000001 857.7072000000001 851.3063999999999 845.8199999999999 839.4192 833.0183999999999 824.7888 815.6448 806.5008 796.4423999999999 786.384 777.24 769.0103999999999 760.7808 754.38 750.7224 746.6076 498.6528 502.3104 761.6952 769.0103999999999 778.1543999999999 786.384 795.528 804.672 812.9015999999999 822.0455999999999 831.1895999999999 841.248 851.3063999999999 862.2792 873.252 883.3104000000001 887.8824 889.7112 891.54 890.6256000000001 888.7968000000001 883.3104000000001 867.7656 849.4775999999999 832.104 820.2167999999999 810.1584 801.9287999999999 794.6135999999999 788.2128 782.7264 779.0688 776.3255999999999 771.7536 762.6096 750.7224 739.7496 730.6056 481.584 477.3168 475.488 474.8784 0.0 0.0 473.4764 473.6592 475.488 477.3168 719.6328 721.4616 722.376 723.2904 723.2904
330.2508 331.0128 331.9272 665.6832 668.1216 669.9504 671.1696 672.9984 674.2176 675.4368 676.0464 676.0464 1014.0695999999999 1014.0695999999999 1013.1551999999999 1011.3263999999999 1010.4119999999999 1008.5831999999999 1006.7543999999999 0.0 0.0 0.0 0.0 0.0 997.6104 996.6960000000001 996.6960000000001 993.9528 992.124 991.2096000000001 0.0 0.0 0.0 0.0 0.0 0.0 0.0 0.0 0.0 0.0 0.0 0.0 0.0 0.0 0.0 0.0 0.0 0.0 0.0 0.0 0.0 0.0 0.0 0.0 0.0 0.0 0.0 0.0 0.0 0.0 931.7736 930.8592000000001 929.9448 929.0304000000001 928.116 928.116 927.2016000000001 617.5248 616.9152 616.3056 615.696 615.0864 614.4768 919.8864000000001 916.2288000000001 912.5712000000001 908.9136000000001 907.0848000000001 907.0848000000001 906.6276 906.1704 906.1704 907.0848000000001 909.828 913.4856 916.2288000000001 918.0576000000001 919.8864000000001 920.8008 921.7152000000001 921.7152000000001 921.7152000000001 920.8008 919.8864000000001 918.0576000000001 914.4000000000001 909.828 906.1704 902.5128 899.7696000000001 897.0264 895.1976 893.3688 890.6256000000001 887.8824 885.1392000000001 882.396 878.7384 874.1664000000001 870.5088000000001 865.0224000000001 860.4504 854.9639999999999 849.4775999999999 843.9911999999999 837.5904 829.3607999999999 820.2167999999999 811.0727999999999 800.0999999999999 789.1271999999999 779.0688 770.8391999999999 763.524 757.1232 751.6368 747.9792 746.1504 500.4816 757.1232 763.524 771.7536 780.8976 789.1271999999999 797.3568 805.5863999999999 813.816 822.96 833.0183999999999 842.1623999999999 852.2208 863.1936000000001 872.3376000000001 876.9096 881.4816000000001 884.2248 883.3104000000001 881.4816000000001 876.9096 864.108 849.4775999999999 834.8471999999999 824.7888 815.6448 807.4151999999999 801.0144 795.528 790.0416 786.384 782.7264 778.1543999999999 768.096 757.1232 746.1504 737.0064 728.7768 480.3648 477.9264 476.7072 474.8784 473.6592 473.4154 473.3544 474.2688 476.0976 477.9264 478.536 479.1456 719.6328 720.5472
330.0984 331.3176 331.9272 666.2928 668.1216 669.9504 671.7792 672.9984 674.2176 675.4368 676.656 676.656 1014.9839999999999 1014.0695999999999 1013.1551999999999 1012.2407999999999 1011.3263999999999 1009.4975999999999 1007.6687999999999 1005.8399999999999 0.0 0.0 0.0 0.0 998.5248000000001 997.6104 996.6960000000001 0.0 0.0 0.0 0.0 0.0 0.0 0.0 0.0 0.0 0.0 0.0 0.0 0.0 0.0 0.0 0.0 0.0 0.0 0.0 0.0 0.0 0.0 0.0 0.0 0.0 0.0 0.0 0.0 0.0 0.0 0.0 0.0 933.6024 932.6880000000001 932.6880000000001 931.7736 930.8592000000001 929.9448 929.0304000000001 929.0304000000001 929.0304000000001 618.744 617.5248 617.5248 617.5248 926.2872 925.3728000000001 921.7152000000001 916.2288000000001 911.6568 909.828 907.0848000000001 906.6276 906.8106 907.0848000000001 908.9136000000001 911.6568 914.4000000000001 917.1432 918.972 920.8008 922.6296 923.5440000000001 924.4584 924.4584 923.5440000000001 922.6296 920.8008 917.1432 912.5712000000001 907.9992 904.3416 899.7696000000001 897.0264 895.1976 894.2832000000001 892.4544000000001 889.7112 886.9680000000001 884.2248 880.5672 876.9096 873.252 867.7656 863.1936000000001 857.7072000000001 853.1351999999999 848.5632 842.1623999999999 833.9328 824.7888 814.7303999999999 803.7575999999999 791.8704 780.8976 772.6679999999999 765.3528 758.952 753.4656 748.8936 745.9674 747.9792 752.5512 758.0376 765.3528 774.4967999999999 782.7264 790.9559999999999 797.3568 805.5863999999999 813.816 823.8743999999999 833.0183999999999 841.248 850.392 858.6216 865.0224000000001 870.5088000000001 874.1664000000001 873.252 871.4232 866.8512000000001 857.7072000000001 847.6487999999999 837.5904 828.4464 820.2167999999999 812.9015999999999 807.4151999999999 801.9287999999999 796.4423999999999 791.8704 787.2983999999999 781.8119999999999 772.6679999999999 762.6096 752.5512 743.4072 735.1776 726.948 481.584 478.536 476.0976 474.8784 473.6592 472.7448 473.6592 474.8784 475.488 476.7072 477.3168 477.9264 478.536
329.946 331.0128 331.9272 665.6832 668.1216 669.9504 671.7792 673.608 674.8272 676.0464 676.656 677.2656 676.656 1014.9839999999999 1014.0695999999999 1013.1551999999999 1012.2407999999999 1010.4119999999999 1008.5831999999999 1006.7543999999999 1004.9255999999999 0.0 0.0 0.0 999.4392 0.0 0.0 0.0 0.0 0.0 0.0 0.0 0.0 0.0 0.0 0.0 0.0 0.0 0.0 0.0 0.0 0.0 0.0 0.0 0.0 0.0 0.0 0.0 0.0 0.0 0.0 0.0 0.0 0.0 0.0 0.0 0.0 0.0 936.3456000000001 935.4312 934.5168000000001 933.6024 932.6880000000001 931.7736 930.8592000000001 930.8592000000001 930.8592000000001 929.9448 929.9448 619.3536 618.744 619.3536 929.9448 929.9448 925.3728000000001 919.8864000000001 915.3144 911.6568 908.9136000000001 907.0848000000001 907.0848000000001 907.9992 909.828 911.6568 914.4000000000001 917.1432 919.8864000000001 922.6296 925.3728000000001 926.2872 927.2016000000001 927.2016000000001 927.2016000000001 926.2872 924.4584 920.8008 916.2288000000001 911.6568 907.0848000000001 901.5984000000001 897.9408000000001 896.1120000000001 895.1976 894.2832000000001 891.54 888.7968000000001 886.0536 882.396 879.6528000000001 875.9952000000001 871.4232 865.9368 861.3648000000001 856.7927999999999 852.2208 847.6487999999999 839.4192 829.3607999999999 820.2167999999999 807.4151999999999 795.528 783.6407999999999 775.4112 768.096 760.7808 755.2944 749.808 745.7846999999999 747.0648 748.8936 752.5512 759.8664 768.096 776.3255999999999 783.6407999999999 790.0416 796.4423999999999 805.5863999999999 813.816 822.0455999999999 830.2752 838.5047999999999 845.8199999999999 852.2208 858.6216 863.1936000000001 863.1936000000001 860.4504 857.7072000000001 851.3063999999999 843.9911999999999 837.5904 831.1895999999999 823.8743999999999 817.4736 811.9872 806.5008 801.9287999999999 797.3568 791.8704 786.384 778.1543999999999 768.096 758.952 749.808 740.664 732.4344 726.0336 480.3648 477.3168 475.488 473.6592 473.0496 472.44 473.6592 474.2688 474.8784 475.488 476.0976 476.0976
329.7936 330.708 331.3176 332.5368 666.9024 669.3408 671.1696 672.9984 674.8272 676.0464 676.656 677.2656 676.595 676.656 1014.0695999999999 1013.1551999999999 1012.2407999999999 1010.4119999999999 1008.5831999999999 1006.7543999999999 1005.8399999999999 1004.0111999999999 0.0 1002.1823999999999 1001.2679999999999 1000.3535999999999 0.0 0.0 0.0 0.0 0.0 0.0 0.0 0.0 0.0 0.0 0.0 0.0 0.0 0.0 0.0 0.0 0.0 0.0 0.0 0.0 0.0 0.0 0.0 0.0 0.0 0.0 0.0 0.0 0.0 0.0 0.0 0.0 937.26 936.3456000000001 935.4312 934.5168000000001 933.6024 932.6880000000001 931.7736 931.7736 931.7736 931.7736 930.8592000000001 929.9448 929.9448 929.9448 930.8592000000001 930.8592000000001 927.2016000000001 921.7152000000001 918.0576000000001 914.4000000000001 911.6568 908.9136000000001 907.9992 907.9992 908.9136000000001 911.6568 915.3144 918.0576000000001 921.7152000000001 925.3728000000001 928.116 929.0304000000001 929.9448 930.8592000000001 930.8592000000001 929.9448 929.0304000000001 926.2872 923.5440000000001 919.8864000000001 914.4000000000001 907.9992 902.5128 899.7696000000001 897.9408000000001 896.1120000000001 893.3688 891.54 888.7968000000001 885.1392000000001 882.396 878.7384 874.1664000000001 869.5944 865.0224000000001 860.4504 856.7927999999999 852.2208 844.9056 836.6759999999999 828.4464 816.5591999999999 803.7575999999999 791.8704 781.8119999999999 772.6679999999999 763.524 758.0376 751.6368 747.9792 745.6016999999999 747.9792 748.8936 755.2944 762.6096 769.0103999999999 775.4112 781.8119999999999 788.2128 795.528 803.7575999999999 811.9872 819.3024 826.6176 833.0183999999999 839.4192 844.9056 850.392 850.392 849.4775999999999 848.5632 843.9911999999999 839.4192 833.9328 828.4464 822.96 818.3879999999999 812.9015999999999 808.3296 803.7575999999999 800.0999999999999 796.4423999999999 790.9559999999999 782.7264 772.6679999999999 762.6096 753.4656 744.3216 736.092 729.6912 723.2904 479.1456 476.7072 474.8784 473.0496 472.1352 472.44 472.44 473.0496 473.6592 474.2688 474.2688
329.4888 329.4888 330.4032 331.9272 332.8416 334.0608 335.28 336.1944 674.2176 675.4368 676.656 1014.5267999999999 1015.8983999999999 1014.9839999999999 1014.9839999999999 1014.0695999999999 1013.1551999999999 1011.3263999999999 1009.4975999999999 1007.6687999999999 1005.8399999999999 1004.9255999999999 1003.0967999999999 1003.0967999999999 1002.1823999999999 1001.2679999999999 1000.3535999999999 0.0 0.0 0.0 0.0 0.0 0.0 0.0 0.0 0.0 0.0 0.0 0.0 0.0 0.0 0.0 0.0 0.0 0.0 0.0 0.0 0.0 0.0 0.0 0.0 0.0 0.0 0.0 0.0 0.0 0.0 0.0 0.0 937.26 936.3456000000001 934.5168000000001 933.6024 932.6880000000001 932.6880000000001 931.3164 931.3164 931.7736 931.7736 931.7736 930.8592000000001 930.8592000000001 930.8592000000001 929.9448 927.2016000000001 923.5440000000001 920.8008 917.1432 914.4000000000001 911.6568 909.828 908.7305999999999 908.9136000000001 910.7424000000001 915.3144 919.8864000000001 923.5440000000001 927.2016000000001 930.8592000000001 931.7736 932.6880000000001 933.6024 933.6024 934.5168000000001 934.5168000000001 933.6024 932.6880000000001 929.9448 922.6296 914.4000000000001 907.9992 903.4272000000001 901.5984000000001 898.8552 896.1120000000001 893.3688 890.6256000000001 887.8824 885.1392000000001 882.396 878.7384 874.1664000000001 869.5944 865.0224000000001 861.3648000000001 856.7927999999999 851.3063999999999 844.9056 837.5904 826.6176 814.7303999999999 801.9287999999999 790.0416 778.1543999999999 767.1816 759.8664 755.2944 750.7224 747.9792 745.4190000000001 746.1504 750.7224 756.2088 761.6952 767.1816 773.5824 779.9831999999999 786.384 793.6992 801.0144 807.4151999999999 813.816 820.2167999999999 825.7031999999999 831.1895999999999 834.8471999999999 837.5904 839.4192 839.4192 836.6759999999999 832.104 828.4464 824.7888 821.1312 817.4736 813.816 809.2439999999999 804.672 801.9287999999999 800.0999999999999 796.4423999999999 787.2983999999999 777.24 767.1816 757.1232 747.9792 738.8352 732.4344 726.0336 720.5472 477.9264 475.488 473.0496 472.44 471.8304 471.2208 471.8304 472.44 473.0496 473.0496
328.5744 328.5744 329.7936 331.0128 332.5368 333.756 334.9752 335.8896 336.804 1012.2407999999999 1014.0695999999999 1014.9839999999999 1014.9839999999999 1014.9839999999999 1014.9839999999999 1014.0695999999999 1013.1551999999999 1011.3263999999999 1009.4975999999999 1007.6687999999999 1006.7543999999999 1004.9255999999999 1004.0111999999999 1004.0111999999999 1003.0967999999999 1003.0967999999999 0.0 0.0 0.0 0.0 0.0 0.0 0.0 0.0 0.0 0.0 0.0 0.0 0.0 0.0 0.0 0.0 0.0 0.0 0.0 0.0 0.0 0.0 0.0 0.0 0.0 0.0 0.0 0.0 0.0 0.0 0.0 0.0 0.0 0.0 937.26 935.4312 934.5168000000001 933.6024 932.6880000000001 932.6880000000001 930.8592000000001 932.6880000000001 932.6880000000001 932.6880000000001 931.7736 931.7736 930.8592000000001 929.9448 928.116 925.3728000000001 922.6296 919.8864000000001 917.1432 914.4000000000001 911.6568 908.9136000000001 910.2852 911.6568 916.2288000000001 920.8008 925.3728000000001 929.0304000000001 932.6880000000001 934.5168000000001 935.4312 936.3456000000001 937.26 938.1744000000001 939.0888 939.0888 939.0888 937.26 929.9448 920.8008 912.5712000000001 907.9992 904.3416 900.684 897.9408000000001 895.1976 893.3688 890.6256000000001 887.8824 885.1392000000001 881.4816000000001 877.8240000000001 873.252 869.5944 865.0224000000001 861.3648000000001 855.8784 851.3063999999999 845.8199999999999 835.7616 823.8743999999999 811.9872 798.2711999999999 783.6407999999999 770.8391999999999 763.524 758.0376 753.4656 749.808 746.6076 745.236 747.0648 750.7224 754.38 759.8664 765.3528 770.8391999999999 777.24 783.6407999999999 790.0416 795.528 801.9287999999999 807.4151999999999 811.9872 815.6448 819.3024 822.96 827.5319999999999 829.3607999999999 827.5319999999999 824.7888 822.0455999999999 820.2167999999999 818.3879999999999 815.6448 811.9872 808.3296 805.5863999999999 803.7575999999999 801.9287999999999 799.1856 790.9559999999999 780.8976 770.8391999999999 760.7808 750.7224 741.5784 735.1776 728.7768 723.2904 479.1456 476.0976 473.6592 472.44 471.2208 470.6112 470.6112 471.2208 471.2208 471.2208
327.66 327.9648 329.184 330.708 331.9272 333.1464 334.3656 335.5848 336.4992 337.1088 1014.0695999999999 1014.0695999999999 1014.9839999999999 1014.9839999999999 1014.0695999999999 1013.1551999999999 1012.2407999999999 1010.4119999999999 0.0 0.0 0.0 0.0 1004.4684 1004.0111999999999 1004.0111999999999 0.0 0.0 0.0 0.0 0.0 0.0 0.0 0.0 0.0 0.0 0.0 0.0 0.0 0.0 0.0 0.0 0.0 0.0 0.0 0.0 0.0 0.0 0.0 0.0 0.0 0.0 0.0 0.0 0.0 0.0 0.0 0.0 0.0 0.0 0.0 0.0 0.0 935.4312 934.5168000000001 933.6024 933.6024 0.0 0.0 0.0 0.0 0.0 0.0 931.7736 930.8592000000001 929.0304000000001 926.2872 924.4584 921.7152000000001 918.972 916.2288000000001 914.4000000000001 911.6568 910.7424000000001 913.4856 918.972 922.6296 926.2872 929.9448 932.6880000000001 934.5168000000001 936.3456000000001 937.26 938.1744000000001 939.0888 939.0888 939.0888 939.0888 937.26 930.8592000000001 922.6296 915.3144 909.828 906.1704 901.5984000000001 899.7696000000001 897.0264 895.1976 892.4544000000001 890.6256000000001 887.8824 884.2248 879.6528000000001 875.9952000000001 871.4232 867.7656 864.108 859.5360000000001 854.9639999999999 848.5632 839.4192 829.3607999999999 819.3024 805.5863999999999 790.9559999999999 778.1543999999999 769.9248 762.6096 757.1232 751.6368 747.9792 744.3216 745.236 747.0648 749.808 754.38 758.0376 762.6096 767.1816 772.6679999999999 777.24 782.7264 789.1271999999999 793.6992 796.4423999999999 799.1856 802.8432 806.5008 811.9872 815.6448 815.6448 813.816 811.9872 811.9872 811.0727999999999 810.1584 808.3296 805.5863999999999 803.7575999999999 801.9287999999999 800.0999999999999 797.3568 790.0416 781.8119999999999 773.5824 764.4384 755.2944 746.1504 738.8352 731.52 725.1192 720.5472 476.7072 474.2688 472.44 470.6112 469.392 469.392 470.0016 470.0016 470.0016
327.3552 327.66 328.5744 330.0984 0.0 0.0 0.0 0.0 335.8896 336.804 337.7184 1013.1551999999999 1014.0695999999999 1014.0695999999999 1013.1551999999999 1012.2407999999999 0.0 0.0 0.0 0.0 0.0 0.0 0.0 0.0 0.0 0.0 0.0 0.0 0.0 0.0 0.0 0.0 0.0 0.0 0.0 0.0 0.0 0.0 0.0 0.0 0.0 0.0 0.0 0.0 0.0 0.0 0.0 0.0 0.0 0.0 0.0 0.0 0.0 0.0 0.0 0.0 0.0 0.0 0.0 0.0 0.0 0.0 0.0 0.0 0.0 0.0 0.0 0.0 0.0 0.0 0.0 0.0 0.0 0.0 929.0304000000001 927.2016000000001 924.4584 922.6296 920.8008 918.972 917.1432 915.3144 914.4000000000001 917.1432 921.7152000000001 925.3728000000001 928.116 929.9448 931.7736 934.5168000000001 936.3456000000001 938.1744000000001 938.1744000000001 939.0888 939.0888 938.1744000000001 937.26 934.5168000000001 929.0304000000001 922.6296 917.1432 911.6568 907.0848000000001 903.4272000000001 900.684 898.8552 897.0264 894.2832000000001 892.4544000000001 889.7112 886.0536 881.4816000000001 877.8240000000001 873.252 869.5944 865.9368 861.3648000000001 855.8784 850.392 843.0768 834.8471999999999 825.7031999999999 812.9015999999999 798.2711999999999 785.4695999999999 776.3255999999999 768.096 760.7808 755.2944 748.8936 745.236 744.1386 745.236 746.1504 748.8936 751.6368 755.2944 758.0376 760.7808 764.4384 769.9248 775.4112 779.0688 780.8976 782.7264 784.5552 790.0416 795.528 800.0999999999999 801.0144 801.0144 801.0144 801.9287999999999 802.8432 802.8432 802.8432 801.9287999999999 800.0999999999999 799.1856 796.4423999999999 793.6992 789.1271999999999 782.7264 776.3255999999999 768.096 759.8664 750.7224 742.4928 734.2632 726.948 721.4616 477.9264 474.8784 472.44 470.6112 468.7824 468.7824 468.7824 468.7824 469.0872
327.2333 327.3552 328.2696 0.0 0.0 0.0 0.0 0.0 0.0 0.0 0.0 337.4136 1013.1551999999999 1013.1551999999999 1012.2407999999999 0.0 0.0 0.0 0.0 0.0 0.0 0.0 0.0 0.0 0.0 0.0 0.0 0.0 0.0 0.0 0.0 0.0 0.0 0.0 0.0 0.0 0.0 0.0 0.0 0.0 0.0 0.0 0.0 0.0 0.0 0.0 0.0 0.0 0.0 0.0 0.0 0.0 0.0 0.0 0.0 0.0 0.0 0.0 0.0 0.0 0.0 0.0 0.0 0.0 0.0 0.0 0.0 0.0 0.0 0.0 0.0 0.0 0.0 0.0 0.0 928.116 925.3728000000001 924.4584 922.6296 920.8008 919.8864000000001 918.0576000000001 918.0576000000001 920.8008 924.4584 927.2016000000001 929.0304000000001 929.9448 931.7736 933.6024 936.3456000000001 938.1744000000001 939.0888 939.0888 939.0888 937.26 934.5168000000001 931.7736 928.116 923.5440000000001 918.0576000000001 913.4856 907.9992 903.4272000000001 901.5984000000001 899.7696000000001 897.9408000000001 895.1976 892.4544000000001 889.7112 886.0536 881.4816000000001 877.8240000000001 874.1664000000001 870.5088000000001 866.8512000000001 862.2792 857.7072000000001 852.2208 845.8199999999999 839.4192 831.1895999999999 819.3024 805.5863999999999 792.7847999999999 782.7264 773.5824 765.3528 758.952 751.6368 746.1504 744.3216 743.9558999999999 744.3216 744.3216 746.1504 747.9792 749.808 751.6368 754.38 758.0376 762.6096 766.2672 768.096 768.096 769.9248 774.4967999999999 780.8976 786.384 788.2128 789.1271999999999 790.0416 791.8704 793.6992 794.6135999999999 795.528 796.4423999999999 796.4423999999999 794.6135999999999 792.7847999999999 790.9559999999999 787.2983999999999 782.7264 778.1543999999999 770.8391999999999 763.524 755.2944 746.1504 737.0064 728.7768 723.2904 717.804 475.488 472.44 470.0016 468.1728 467.5632 467.5632 467.5632 467.868
654.3446 327.3552 328.2696 0.0 0.0 0.0 0.0 0.0 0.0 0.0 0.0 337.4136 1012.2407999999999 1012.2407999999999 0.0 0.0 0.0 0.0 0.0 0.0 0.0 0.0 0.0 0.0 0.0 0.0 0.0 0.0 0.0 0.0 0.0 335.8896 335.28 0.0 0.0 0.0 0.0 0.0 0.0 0.0 0.0 0.0 0.0 0.0 0.0 0.0 0.0 0.0 0.0 0.0 0.0 0.0 0.0 0.0 0.0 0.0 0.0 0.0 0.0 0.0 0.0 0.0 0.0 0.0 0.0 0.0 0.0 0.0 0.0 0.0 0.0 0.0 0.0 0.0 0.0 928.116 926.2872 925.3728000000001 923.5440000000001 922.6296 922.6296 921.7152000000001 922.6296 924.4584 926.2872 929.0304000000001 929.9448 930.8592000000001 932.6880000000001 934.5168000000001 936.3456000000001 938.1744000000001 938.1744000000001 939.0888 939.0888 936.3456000000001 933.6024 929.9448 926.2872 922.6296 918.0576000000001 913.4856 907.9992 904.3416 901.5984000000001 899.7696000000001 897.9408000000001 894.2832000000001 890.6256000000001 886.0536 882.396 877.8240000000001 874.1664000000001 870.5088000000001 868.6800000000001 865.9368 862.2792 857.7072000000001 853.1351999999999 847.6487999999999 842.1623999999999 834.8471999999999 823.8743999999999 811.0727999999999 800.0999999999999 790.0416 781.8119999999999 772.6679999999999 765.3528 758.0376 751.6368 747.9792 745.236 743.7728999999999 744.1386 744.3216 745.236 746.1504 747.0648 747.9792 751.6368 755.2944 758.0376 758.952 759.8664 761.6952 765.3528 770.8391999999999 775.4112 777.24 779.0688 779.9831999999999 781.8119999999999 782.7264 783.6407999999999 785.4695999999999 787.2983999999999 788.2128 788.2128 788.2128 786.384 783.6407999999999 779.9831999999999 776.3255999999999 770.8391999999999 764.4384 757.1232 748.8936 739.7496 731.52 725.1192 718.7184 713.232 472.44 470.0016 467.5632 466.9536 466.344 465.7344 466.0392
654.2836 654.7104 328.2696 0.0 0.0 0.0 0.0 0.0 0.0 0.0 0.0 0.0 0.0 0.0 0.0 0.0 0.0 0.0 0.0 0.0 0.0 0.0 0.0 334.3656 334.6704 334.9752 335.28 0.0 0.0 336.1944 336.1944 335.8896 335.28 334.6704 0.0 0.0 0.0 0.0 0.0 0.0 0.0 0.0 0.0 0.0 0.0 0.0 0.0 0.0 0.0 0.0 0.0 0.0 0.0 0.0 0.0 0.0 0.0 0.0 0.0 0.0 0.0 0.0 0.0 0.0 0.0 0.0 0.0 0.0 0.0 0.0 0.0 0.0 0.0 0.0 0.0 0.0 927.2016000000001 926.2872 925.3728000000001 924.4584 925.3728000000001 925.3728000000001 926.2872 927.2016000000001 929.0304000000001 929.9448 930.8592000000001 931.7736 933.6024 934.5168000000001 936.3456000000001 937.26 938.1744000000001 939.0888 939.0888 935.4312 931.7736 928.116 924.4584 920.8008 917.1432 912.5712000000001 907.9992 904.3416 901.5984000000001 899.7696000000001 897.0264 892.4544000000001 886.9680000000001 881.4816000000001 876.9096 872.3376000000001 868.6800000000001 866.8512000000001 865.0224000000001 863.1936000000001 860.4504 857.7072000000001 854.9639999999999 849.4775999999999 843.9911999999999 837.5904 827.5319999999999 817.4736 807.4151999999999 798.2711999999999 789.1271999999999 780.8976 772.6679999999999 764.4384 757.1232 752.5512 747.9792 744.3216 0.0 0.0 0.0 743.4072 743.4072 744.3216 746.1504 748.8936 750.7224 752.5512 754.38 756.2088 758.952 762.6096 765.3528 767.1816 769.0103999999999 769.9248 770.8391999999999 770.8391999999999 771.7536 774.4967999999999 777.24 779.9831999999999 780.8976 782.7264 782.7264 779.9831999999999 776.3255999999999 772.6679999999999 769.0103999999999 764.4384 758.952 750.7224 742.4928 734.2632 726.948 720.5472 713.232 472.44 469.392 466.9536 465.7344 465.1248 463.9056 464.2104
654.2228 654.7104 656.5392 0.0 0.0 0.0 0.0 0.0 0.0 0.0 0.0 0.0 0.0 0.0 0.0 0.0 0.0 0.0 0.0 0.0 0.0 333.756 333.4512 333.756 334.3656 334.6704 334.9752 335.5848 335.8896 336.1944 336.1944 335.8896 335.28 334.6704 333.756 0.0 0.0 0.0 0.0 0.0 0.0 0.0 0.0 0.0 0.0 0.0 0.0 0.0 0.0 0.0 0.0 0.0 0.0 0.0 0.0 0.0 0.0 0.0 0.0 0.0 0.0 0.0 0.0 0.0 0.0 0.0 0.0 0.0 0.0 0.0 0.0 0.0 0.0 0.0 0.0 0.0 0.0 927.2016000000001 926.2872 926.2872 927.2016000000001 929.0304000000001 929.9448 930.8592000000001 930.8592000000001 931.7736 932.6880000000001 933.6024 934.5168000000001 935.4312 936.3456000000001 936.3456000000001 937.26 938.1744000000001 937.26 933.6024 929.0304000000001 924.4584 921.7152000000001 918.972 916.2288000000001 911.6568 907.0848000000001 903.4272000000001 900.684 898.8552 896.1120000000001 890.6256000000001 883.3104000000001 876.9096 872.3376000000001 868.6800000000001 865.0224000000001 863.1936000000001 862.2792 860.4504 859.5360000000001 857.7072000000001 855.8784 851.3063999999999 845.8199999999999 840.3335999999999 831.1895999999999 822.0455999999999 813.816 805.5863999999999 797.3568 789.1271999999999 780.8976 771.7536 764.4384 758.0376 751.6368 747.0648 744.3216 743.4072 0.0 0.0 0.0 741.5784 741.5784 743.4072 745.236 747.0648 748.8936 750.7224 752.5512 754.38 756.2088 758.0376 759.8664 760.7808 760.7808 760.7808 760.7808 763.524 767.1816 769.9248 773.5824 776.3255999999999 777.24 775.4112 772.6679999999999 769.0103999999999 766.2672 763.524 759.8664 752.5512 744.3216 736.092 728.7768 721.4616 714.1464 708.66 469.392 466.344 464.5152 463.296 462.6864 462.9912
654.2836 654.7104 656.5392 659.5872 0.0 0.0 0.0 0.0 0.0 0.0 0.0 0.0 0.0 0.0 0.0 0.0 0.0 0.0 0.0 0.0 333.4512 333.1464 333.1464 333.4512 333.756 334.0608 334.6704 335.28 335.5848 335.5848 335.8896 335.5848 334.9752 334.3656 0.0 0.0 0.0 0.0 0.0 0.0 0.0 0.0 0.0 0.0 0.0 0.0 0.0 0.0 0.0 0.0 0.0 0.0 0.0 0.0 0.0 0.0 0.0 0.0 0.0 0.0 0.0 0.0 0.0 0.0 0.0 0.0 0.0 0.0 0.0 0.0 0.0 0.0 0.0 0.0 0.0 0.0 0.0 0.0 927.2016000000001 928.116 929.0304000000001 930.8592000000001 931.7736 932.6880000000001 932.6880000000001 933.6024 934.5168000000001 934.5168000000001 935.4312 935.4312 936.3456000000001 936.3456000000001 935.4312 934.5168000000001 932.6880000000001 928.116 922.6296 918.0576000000001 916.2288000000001 913.4856 911.6568 907.9992 904.3416 901.5984000000001 898.8552 897.0264 893.3688 887.8824 880.5672 874.1664000000001 869.5944 865.9368 863.1936000000001 861.3648000000001 860.4504 859.5360000000001 858.6216 857.7072000000001 856.7927999999999 852.2208 846.7344 841.248 833.9328 825.7031999999999 818.3879999999999 811.0727999999999 803.7575999999999 796.4423999999999 789.1271999999999 780.8976 772.6679999999999 765.3528 758.0376 751.6368 747.9792 745.236 0.0 0.0 0.0 0.0 740.664 740.664 741.5784 742.4928 744.3216 746.1504 747.0648 747.9792 748.8936 750.7224 751.6368 753.4656 753.4656 752.5512 753.4656 755.2944 758.0376 759.8664 763.524 767.1816 769.9248 768.096 766.2672 763.524 761.6952 758.952 756.2088 750.7224 744.3216 737.0064 729.6912 721.4616 714.1464 708.66 702.2592 697.6872 463.296 462.0768 460.8576 461.1624
654.4056 654.7104 656.5392 659.5872 662.0256 664.464 666.2928 668.1216 669.9504 671.7792 672.9984 0.0 0.0 0.0 0.0 0.0 0.0 0.0 0.0 0.0 0.0 332.5368 332.5368 332.8416 333.1464 333.4512 334.0608 334.6704 334.9752 335.28 335.28 335.28 334.6704 0.0 0.0 0.0 0.0 0.0 0.0 0.0 0.0 0.0 0.0 0.0 0.0 0.0 0.0 0.0 0.0 0.0 0.0 0.0 0.0 0.0 0.0 0.0 0.0 0.0 0.0 0.0 0.0 0.0 0.0 0.0 0.0 0.0 0.0 0.0 0.0 0.0 0.0 0.0 0.0 0.0 0.0 0.0 0.0 0.0 0.0 929.0304000000001 930.8592000000001 931.7736 932.6880000000001 933.6024 935.4312 936.3456000000001 936.3456000000001 936.3456000000001 936.3456000000001 936.3456000000001 936.3456000000001 936.3456000000001 933.6024 929.9448 925.3728000000001 920.8008 915.3144 910.7424000000001 908.9136000000001 907.9992 906.1704 904.3416 901.5984000000001 898.8552 896.1120000000001 894.2832000000001 890.6256000000001 884.2248 876.9096 870.5088000000001 867.7656 865.0224000000001 863.1936000000001 861.3648000000001 859.5360000000001 858.6216 857.7072000000001 857.7072000000001 856.7927999999999 852.2208 847.6487999999999 842.1623999999999 835.7616 829.3607999999999 822.96 816.5591999999999 810.1584 803.7575999999999 797.3568 790.0416 782.7264 773.5824 764.4384 757.1232 752.5512 0.0 0.0 744.3216 742.4928 0.0 0.0 0.0 739.7496 739.7496 740.664 741.5784 742.4928 742.4928 743.4072 744.3216 744.3216 745.236 746.1504 746.1504 747.0648 747.9792 748.8936 749.808 753.4656 758.0376 760.7808 760.7808 758.952 757.1232 756.2088 754.38 751.6368 747.9792 743.4072 737.9208 730.6056 722.376 715.0608 707.7456 701.3448 695.8584 693.1152 460.8576 459.6384 460.248
654.5886 654.7104 656.5392 659.5872 662.0256 664.464 666.2928 668.7312 669.9504 671.7792 672.3888 672.3888 672.3888 671.7792 0.0 0.0 0.0 0.0 0.0 0.0 0.0 0.0 0.0 332.232 332.5368 332.8416 333.4512 334.0608 334.3656 334.6704 334.6704 334.6704 0.0 0.0 0.0 0.0 0.0 0.0 0.0 0.0 0.0 0.0 0.0 0.0 0.0 0.0 0.0 0.0 0.0 0.0 0.0 0.0 0.0 0.0 0.0 0.0 0.0 0.0 0.0 0.0 0.0 0.0 0.0 0.0 0.0 0.0 0.0 0.0 0.0 0.0 0.0 0.0 0.0 0.0 0.0 0.0 0.0 0.0 0.0 929.9448 931.7736 932.6880000000001 933.6024 935.4312 937.26 938.1744000000001 938.1744000000001 938.1744000000001 937.26 937.26 937.26 935.4312 931.7736 926.2872 920.8008 915.3144 909.828 905.2560000000001 903.4272000000001 902.5128 901.5984000000001 899.7696000000001 897.9408000000001 896.1120000000001 893.3688 891.54 887.8824 881.4816000000001 875.0808 868.6800000000001 865.9368 864.108 862.2792 860.4504 858.6216 857.7072000000001 857.7072000000001 857.25 856.7927999999999 853.1351999999999 848.5632 843.0768 837.5904 833.0183999999999 827.5319999999999 822.0455999999999 816.5591999999999 811.0727999999999 805.5863999999999 799.1856 790.9559999999999 781.8119999999999 772.6679999999999 763.524 0.0 753.4656 749.808 747.0648 745.236 743.4072 741.5784 0.0 0.0 0.0 738.2864999999999 738.1038000000001 737.9208 737.9208 737.9208 738.8352 738.8352 738.8352 739.7496 740.664 740.664 740.664 740.664 741.5784 744.3216 748.8936 751.6368 752.5512 751.6368 751.6368 750.7224 748.8936 747.0648 744.3216 740.664 737.0064 729.6912 722.376 714.1464 706.8312 700.4304 694.0296 691.2864 689.4576 688.5432 458.4192
654.7104 655.32 657.1488 659.5872 662.6352 664.464 666.9024 668.7312 669.9504 671.7792 672.3888 672.3888 671.7792 671.1696 670.56 0.0 0.0 0.0 0.0 0.0 0.0 0.0 0.0 0.0 0.0 332.232 332.5368 333.1464 333.4512 333.756 334.0608 334.0608 333.756 0.0 0.0 0.0 0.0 0.0 0.0 0.0 0.0 0.0 0.0 0.0 0.0 0.0 0.0 0.0 0.0 0.0 0.0 0.0 0.0 0.0 0.0 0.0 0.0 0.0 0.0 0.0 0.0 0.0 0.0 0.0 0.0 0.0 0.0 0.0 0.0 0.0 0.0 0.0 0.0 0.0 0.0 0.0 0.0 0.0 0.0 929.9448 930.8592000000001 932.6880000000001 933.6024 935.4312 938.1744000000001 940.0032000000001 940.0032000000001 940.0032000000001 939.0888 938.1744000000001 937.26 935.4312 929.9448 924.4584 918.0576000000001 913.4856 907.9992 903.4272000000001 901.5984000000001 900.684 898.8552 897.0264 895.1976 893.3688 891.54 888.7968000000001 886.0536 880.5672 873.252 867.7656 865.0224000000001 863.1936000000001 861.3648000000001 859.5360000000001 857.7072000000001 856.7927999999999 856.7927999999999 857.7072000000001 856.7927999999999 854.0496 849.4775999999999 844.9056 840.3335999999999 835.7616 831.1895999999999 826.6176 822.0455999999999 817.4736 811.9872 805.5863999999999 799.1856 790.9559999999999 781.8119999999999 773.5824 768.096 763.524 758.952 755.2944 752.5512 748.8936 747.0648 744.3216 741.5784 740.664 739.7496 738.8352 737.9208 737.0064 736.092 736.092 736.092 736.092 736.092 736.092 737.0064 736.092 736.092 736.092 738.8352 742.4928 744.3216 745.236 745.236 745.236 744.3216 743.4072 741.5784 738.8352 736.092 732.4344 726.0336 718.7184 712.3176 705.9168 698.6016 693.1152 690.372 688.5432 687.1716 686.7144
327.66 655.32 657.7584 660.1968 662.6352 665.0736 666.9024 668.7312 670.56 671.1696 672.3888 672.3888 671.7792 671.1696 669.9504 0.0 0.0 0.0 0.0 0.0 0.0 0.0 0.0 0.0 0.0 0.0 0.0 332.232 332.5368 332.8416 333.1464 333.1464 332.8416 332.5368 0.0 0.0 0.0 0.0 0.0 0.0 0.0 0.0 0.0 0.0 0.0 0.0 0.0 0.0 0.0 0.0 0.0 0.0 0.0 0.0 0.0 0.0 0.0 0.0 0.0 0.0 0.0 0.0 0.0 0.0 0.0 0.0 0.0 0.0 0.0 0.0 0.0 0.0 0.0 0.0 0.0 0.0 0.0 0.0 925.3728000000001 928.116 929.9448 931.7736 933.6024 936.3456000000001 939.0888 940.9176 941.8320000000001 941.8320000000001 940.9176 939.0888 937.26 934.5168000000001 929.9448 923.5440000000001 918.0576000000001 912.5712000000001 907.9992 903.4272000000001 900.684 898.8552 897.0264 895.1976 893.3688 891.54 888.7968000000001 886.9680000000001 884.2248 878.7384 873.252 867.7656 864.108 862.2792 860.4504 858.6216 856.7927999999999 855.8784 855.8784 857.7072000000001 857.7072000000001 854.9639999999999 851.3063999999999 847.6487999999999 843.0768 839.4192 835.7616 831.1895999999999 827.5319999999999 822.96 818.3879999999999 812.9015999999999 806.5008 799.1856 791.8704 784.5552 779.0688 774.4967999999999 769.9248 765.3528 760.7808 757.1232 753.4656 749.808 746.1504 744.3216 742.4928 740.664 738.8352 737.0064 736.092 735.1776 734.2632 733.3488 733.3488 733.3488 733.3488 733.3488 732.4344 733.3488 734.2632 736.092 737.9208 737.9208 738.8352 738.8352 737.9208 737.0064 735.1776 733.3488 730.6056 726.948 721.4616 715.0608 709.5744 703.1736 698.6016 693.1152 690.372 687.6288 686.7144 686.2572
327.8124 327.9648 657.7584 660.8064 663.2448 665.0736 667.512 669.3408 670.56 671.1696 672.3888 671.7792 671.7792 671.1696 334.9752 334.0608 0.0 0.0 0.0 0.0 0.0 0.0 0.0 0.0 0.0 0.0 0.0 0.0 0.0 331.9272 332.232 332.5368 332.232 0.0 0.0 0.0 0.0 0.0 0.0 0.0 0.0 0.0 0.0 0.0 0.0 0.0 0.0 0.0 0.0 0.0 0.0 0.0 0.0 0.0 0.0 0.0 0.0 0.0 0.0 0.0 0.0 0.0 0.0 0.0 0.0 0.0 0.0 0.0 0.0 0.0 0.0 0.0 0.0 0.0 0.0 0.0 0.0 0.0 923.5440000000001 926.2872 929.0304000000001 930.8592000000001 933.6024 936.3456000000001 939.0888 941.8320000000001 942.7464 942.7464 942.7464 940.0032000000001 937.26 934.5168000000001 929.0304000000001 922.6296 917.1432 912.5712000000001 907.0848000000001 902.5128 899.7696000000001 897.0264 894.2832000000001 892.4544000000001 890.6256000000001 888.7968000000001 886.9680000000001 885.1392000000001 882.396 877.8240000000001 872.3376000000001 867.7656 865.0224000000001 862.2792 859.5360000000001 857.7072000000001 856.7927999999999 855.8784 854.9639999999999 857.7072000000001 857.7072000000001 854.9639999999999 852.2208 848.5632 844.9056 841.248 838.5047999999999 834.8471999999999 831.1895999999999 827.5319999999999 822.96 817.4736 812.9015999999999 806.5008 801.0144 794.6135999999999 790.0416 785.4695999999999 780.8976 775.4112 769.9248 765.3528 760.7808 756.2088 751.6368 748.8936 746.1504 743.4072 740.664 737.9208 736.092 734.2632 733.3488 731.52 731.52 730.6056 730.6056 729.6912 729.6912 729.6912 730.6056 730.6056 731.52 731.52 732.4344 732.4344 731.52 730.6056 729.6912 726.948 725.1192 721.4616 716.8896 711.4032 706.8312 702.2592 697.6872 693.1152 690.372 687.6288 686.2572 686.1657
327.66 327.66 328.8792 660.8064 663.2448 665.6832 667.512 669.3408 670.56 671.1696 672.3888 671.7792 335.5848 335.28 334.6704 333.756 333.1464 332.5368 0.0 0.0 0.0 0.0 0.0 0.0 0.0 0.0 0.0 0.0 331.0128 331.3176 331.6224 331.6224 0.0 0.0 0.0 0.0 0.0 0.0 0.0 0.0 0.0 0.0 0.0 0.0 0.0 0.0 0.0 0.0 0.0 0.0 0.0 0.0 0.0 0.0 0.0 0.0 0.0 0.0 0.0 0.0 0.0 0.0 0.0 0.0 0.0 0.0 0.0 0.0 0.0 0.0 0.0 0.0 0.0 0.0 0.0 0.0 0.0 918.972 921.7152000000001 924.4584 926.2872 929.0304000000001 931.7736 934.5168000000001 937.26 940.0032000000001 941.8320000000001 941.8320000000001 941.8320000000001 940.0032000000001 937.26 933.6024 928.116 922.6296 917.1432 911.6568 907.0848000000001 901.5984000000001 898.8552 896.1120000000001 893.3688 890.6256000000001 888.7968000000001 886.9680000000001 885.1392000000001 883.3104000000001 880.5672 877.8240000000001 873.252 869.5944 866.8512000000001 865.0224000000001 862.2792 860.4504 858.6216 856.7927999999999 856.7927999999999 854.0496 855.8784 853.1351999999999 849.4775999999999 846.7344 843.0768 840.3335999999999 837.5904 834.8471999999999 831.1895999999999 828.4464 823.8743999999999 820.2167999999999 815.6448 811.0727999999999 807.4151999999999 802.8432 798.2711999999999 794.6135999999999 790.0416 785.4695999999999 779.9831999999999 774.4967999999999 769.9248 765.3528 759.8664 756.2088 752.5512 748.8936 745.236 741.5784 737.9208 736.092 734.2632 732.4344 731.0628 730.6056 729.6912 728.7768 727.8624 726.948 726.948 726.948 726.948 726.948 726.948 726.948 726.948 726.0336 725.1192 722.376 719.6328 716.8896 713.232 708.66 704.088 700.4304 696.7728 693.1152 690.372 687.6288 686.6229000000001 686.5314
327.3552 327.66 328.8792 330.4032 663.8544 665.6832 667.512 669.3408 670.56 671.7792 335.8896 335.8896 335.5848 334.9752 334.3656 333.756 332.8416 332.232 331.6224 331.0128 0.0 0.0 0.0 0.0 0.0 0.0 329.7936 330.0984 330.0984 330.4032 331.0128 331.3176 331.0128 0.0 0.0 0.0 0.0 0.0 0.0 0.0 0.0 0.0 0.0 0.0 0.0 0.0 0.0 0.0 0.0 0.0 0.0 0.0 0.0 0.0 0.0 0.0 0.0 0.0 0.0 0.0 0.0 0.0 0.0 0.0 0.0 0.0 0.0 0.0 0.0 0.0 0.0 0.0 0.0 0.0 0.0 0.0 916.2288000000001 917.1432 918.972 920.8008 923.5440000000001 926.2872 929.0304000000001 931.7736 935.4312 939.0888 940.0032000000001 940.9176 940.9176 939.0888 936.3456000000001 932.6880000000001 928.116 922.6296 917.1432 911.6568 906.1704 901.5984000000001 897.9408000000001 894.2832000000001 891.54 889.7112 886.9680000000001 885.1392000000001 883.3104000000001 881.4816000000001 879.6528000000001 876.9096 875.0808 872.3376000000001 870.5088000000001 867.7656 865.9368 864.108 861.3648000000001 859.5360000000001 857.7072000000001 855.8784 853.1351999999999 850.392 846.7344 843.0768 840.3335999999999 838.5047999999999 835.7616 833.0183999999999 830.2752 827.5319999999999 824.7888 821.1312 818.3879999999999 815.6448 811.9872 809.2439999999999 806.5008 803.7575999999999 800.0999999999999 795.528 790.0416 785.4695999999999 779.9831999999999 774.4967999999999 769.9248 764.4384 759.8664 755.2944 750.7224 745.236 740.664 737.9208 735.1776 733.3488 731.52 730.6056 728.7768 727.8624 726.0336 725.1192 724.2048 724.2048 724.2048 723.2904 722.376 722.376 721.4616 721.4616 719.6328 717.804 715.0608 712.3176 708.66 705.9168 703.1736 699.516 695.8584 693.1152 690.372 688.5432 686.7144 687.1716
327.0504 327.3552 328.5744 330.4032 331.9272 332.8416 667.512 669.3408 335.28 335.8896 335.8896 335.8896 335.28 334.9752 334.3656 333.4512 332.5368 331.9272 331.3176 330.708 330.0984 329.4888 0.0 0.0 328.8792 328.8792 329.184 329.184 329.4888 329.7936 330.0984 330.4032 330.4032 330.0984 0.0 0.0 0.0 0.0 0.0 0.0 0.0 0.0 0.0 0.0 0.0 0.0 0.0 0.0 0.0 0.0 0.0 0.0 0.0 0.0 0.0 0.0 0.0 0.0 0.0 0.0 0.0 0.0 0.0 0.0 0.0 0.0 0.0 0.0 0.0 0.0 0.0 0.0 0.0 0.0 0.0 918.0576000000001 915.3144 915.3144 917.1432 918.972 920.8008 923.5440000000001 926.2872 929.9448 932.6880000000001 936.3456000000001 938.1744000000001 939.0888 939.0888 937.26 934.5168000000001 931.7736 927.2016000000001 921.7152000000001 916.2288000000001 910.7424000000001 905.2560000000001 899.7696000000001 896.1120000000001 893.3688 889.7112 887.8824 886.0536 883.3104000000001 881.4816000000001 879.6528000000001 877.8240000000001 876.9096 875.9952000000001 874.1664000000001 872.3376000000001 870.5088000000001 868.6800000000001 865.9368 864.108 861.3648000000001 857.7072000000001 854.9639999999999 851.3063999999999 847.6487999999999 843.9911999999999 840.3335999999999 837.5904 835.7616 833.9328 831.1895999999999 829.3607999999999 826.6176 824.7888 822.96 821.1312 820.2167999999999 818.3879999999999 817.4736 815.6448 813.816 811.0727999999999 806.5008 801.0144 796.4423999999999 790.9559999999999 785.4695999999999 779.9831999999999 773.5824 768.096 762.6096 756.2088 749.808 744.3216 740.664 737.9208 735.1776 733.3488 730.6056 728.7768 726.948 725.1192 723.2904 0.0 0.0 0.0 720.5472 718.7184 717.804 717.804 716.8896 715.9752 714.1464 710.4888 707.7456 705.9168 703.1736 701.3448 698.6016 694.944 692.2008 690.372 689.4576 687.6288 688.086
326.4408 326.7456 328.2696 329.7936 331.3176 332.5368 333.4512 334.3656 334.9752 335.5848 335.8896 335.5848 335.28 334.9752 334.3656 333.4512 332.5368 331.9272 331.3176 330.708 330.0984 329.184 328.5744 328.5744 328.5744 328.5744 328.5744 328.5744 328.8792 328.8792 329.4888 329.7936 329.4888 0.0 0.0 0.0 0.0 0.0 0.0 0.0 0.0 0.0 0.0 0.0 0.0 0.0 0.0 0.0 0.0 0.0 0.0 0.0 0.0 0.0 0.0 0.0 0.0 0.0 0.0 0.0 0.0 0.0 0.0 0.0 0.0 0.0 0.0 0.0 0.0 0.0 0.0 0.0 0.0 0.0 0.0 917.1432 914.4000000000001 914.4000000000001 915.3144 916.2288000000001 918.0576000000001 920.8008 922.6296 925.3728000000001 929.0304000000001 931.7736 933.6024 935.4312 935.4312 934.5168000000001 931.7736 929.0304000000001 924.4584 919.8864000000001 915.3144 909.828 904.3416 898.8552 895.1976 892.4544000000001 888.7968000000001 886.9680000000001 884.2248 882.396 880.5672 878.7384 876.9096 875.9952000000001 875.0808 874.1664000000001 872.3376000000001 870.5088000000001 868.6800000000001 865.9368 864.108 861.3648000000001 857.7072000000001 853.1351999999999 849.4775999999999 845.8199999999999 842.1623999999999 838.5047999999999 835.7616 833.9328 831.1895999999999 829.3607999999999 827.5319999999999 825.7031999999999 825.7031999999999 825.7031999999999 825.7031999999999 826.6176 827.5319999999999 828.4464 827.5319999999999 826.6176 824.7888 820.2167999999999 815.6448 810.1584 803.7575999999999 797.3568 790.9559999999999 784.5552 777.24 769.9248 762.6096 756.2088 748.8936 745.236 741.5784 738.8352 736.092 733.3488 730.6056 728.7768 726.0336 724.2048 723.2904 0.0 0.0 0.0 0.0 0.0 0.0 715.9752 715.0608 712.3176 709.5744 706.8312 705.0024 702.2592 700.4304 697.6872 694.944 693.1152 691.2864 690.372 689.4576 689.9148
326.136 326.4408 327.66 329.184 330.4032 331.6224 332.8416 334.0608 334.6704 335.28 335.5848 335.5848 335.28 334.9752 334.3656 333.4512 332.8416 331.9272 331.3176 330.4032 329.7936 329.184 328.2696 328.2696 327.9648 327.9648 327.9648 327.9648 327.9648 328.2696 328.5744 328.5744 328.5744 0.0 0.0 0.0 0.0 0.0 0.0 0.0 0.0 0.0 0.0 0.0 0.0 0.0 0.0 0.0 0.0 0.0 0.0 0.0 0.0 0.0 0.0 0.0 0.0 0.0 0.0 0.0 0.0 0.0 0.0 0.0 0.0 0.0 0.0 0.0 0.0 0.0 0.0 0.0 0.0 0.0 918.972 916.2288000000001 913.4856 913.4856 913.4856 914.4000000000001 916.2288000000001 0.0 0.0 0.0 0.0 927.2016000000001 929.0304000000001 930.8592000000001 931.7736 930.8592000000001 928.116 926.2872 922.6296 918.0576000000001 913.4856 908.9136000000001 903.4272000000001 897.9408000000001 894.2832000000001 891.54 887.8824 886.0536 883.3104000000001 881.4816000000001 879.6528000000001 877.8240000000001 876.9096 875.9952000000001 875.0808 873.252 871.4232 869.5944 867.7656 865.0224000000001 863.1936000000001 860.4504 855.8784 851.3063999999999 847.6487999999999 843.9911999999999 840.3335999999999 837.5904 834.8471999999999 832.104 829.3607999999999 827.5319999999999 826.6176 825.8859 826.6176 829.3607999999999 831.1895999999999 833.9328 837.5904 839.4192 840.3335999999999 841.248 840.3335999999999 835.7616 830.2752 823.8743999999999 817.4736 811.0727999999999 803.7575999999999 795.528 787.2983999999999 779.0688 770.8391999999999 761.6952 754.38 749.808 746.1504 742.4928 739.7496 736.092 732.4344 730.6056 727.8624 726.0336 725.1192 0.0 0.0 0.0 0.0 717.804 716.8896 715.9752 714.1464 712.3176 709.5744 706.8312 704.088 702.2592 699.516 696.7728 694.944 693.1152 692.2008 691.2864 690.372 690.8292
325.2216 325.5264 326.7456 328.2696 329.7936 331.0128 996.6960000000001 1000.3535999999999 1003.0967999999999 334.9752 335.5848 335.5848 335.28 334.9752 334.3656 333.756 332.8416 331.9272 331.3176 330.4032 329.7936 328.8792 328.2696 327.9648 327.9648 327.66 327.66 327.3552 327.3552 327.3552 327.66 327.9648 327.66 0.0 0.0 0.0 0.0 0.0 0.0 0.0 0.0 0.0 0.0 0.0 0.0 0.0 0.0 0.0 0.0 0.0 0.0 0.0 0.0 0.0 0.0 0.0 0.0 0.0 0.0 0.0 0.0 0.0 0.0 0.0 0.0 0.0 0.0 0.0 0.0 0.0 0.0 0.0 0.0 0.0 918.972 916.2288000000001 913.4856 912.5712000000001 912.5712000000001 912.5712000000001 913.4856 0.0 0.0 0.0 0.0 0.0 0.0 926.2872 927.2016000000001 926.2872 925.3728000000001 923.5440000000001 919.8864000000001 916.2288000000001 911.6568 907.0848000000001 901.5984000000001 897.0264 893.3688 890.6256000000001 886.9680000000001 885.1392000000001 882.396 880.5672 878.7384 877.8240000000001 875.9952000000001 875.0808 874.1664000000001 873.252 871.4232 869.5944 866.8512000000001 865.0224000000001 862.2792 859.5360000000001 854.9639999999999 850.392 845.8199999999999 842.1623999999999 839.4192 835.7616 833.0183999999999 830.2752 827.5319999999999 826.6176 826.2519 826.0689 828.4464 832.104 835.7616 840.3335999999999 845.8199999999999 849.4775999999999 852.2208 854.0496 854.0496 849.4775999999999 843.9911999999999 837.5904 830.2752 823.8743999999999 815.6448 806.5008 797.3568 787.2983999999999 778.1543999999999 769.0103999999999 761.6952 756.2088 751.6368 747.0648 742.4928 738.8352 735.1776 732.4344 730.6056 485.2416 0.0 0.0 723.2904 721.4616 720.5472 719.6328 717.804 716.8896 715.0608 712.3176 709.5744 706.8312 704.088 702.2592 699.516 697.6872 695.8584 694.0296 693.1152 693.1152 692.2008 693.1152
323.6976 324.0024 325.2216 326.7456 328.5744 329.7936 993.9528 998.5248000000001 1001.2679999999999 1004.0111999999999 335.28 335.4324 335.28 334.9752 334.6704 333.756 333.1464 332.232 331.3176 330.708 329.7936 328.8792 328.2696 327.9648 327.66 0.0 0.0 0.0 326.7456 326.7456 327.0504 327.0504 0.0 0.0 0.0 0.0 0.0 0.0 0.0 0.0 0.0 0.0 0.0 0.0 0.0 0.0 0.0 0.0 0.0 0.0 0.0 0.0 0.0 0.0 0.0 0.0 0.0 0.0 0.0 0.0 0.0 0.0 0.0 0.0 0.0 0.0 0.0 0.0 0.0 0.0 0.0 0.0 0.0 0.0 0.0 916.2288000000001 914.4000000000001 912.5712000000001 911.6568 911.6568 911.6568 0.0 0.0 0.0 0.0 0.0 0.0 0.0 922.6296 922.6296 921.7152000000001 920.8008 917.1432 913.4856 908.9136000000001 904.3416 899.7696000000001 895.1976 892.4544000000001 888.7968000000001 886.0536 884.2248 881.4816000000001 879.6528000000001 877.8240000000001 876.9096 875.0808 875.0808 874.1664000000001 873.252 871.4232 869.5944 867.7656 865.0224000000001 863.1936000000001 860.4504 855.8784 851.3063999999999 845.8199999999999 842.1623999999999 839.4192 835.7616 833.0183999999999 830.2752 827.5319999999999 826.6176 826.4346 826.6176 829.3607999999999 833.9328 837.5904 843.0768 849.4775999999999 854.9639999999999 858.6216 862.2792 864.108 860.4504 854.9639999999999 848.5632 841.248 833.9328 826.6176 816.5591999999999 806.5008 797.3568 788.2128 779.0688 770.8391999999999 763.524 757.1232 751.6368 746.1504 741.5784 737.9208 735.1776 488.2896 487.0704 485.8512 726.948 726.0336 724.2048 723.2904 722.376 720.5472 719.6328 717.804 715.0608 711.4032 707.7456 705.9168 704.088 702.2592 700.4304 697.6872 695.8584 694.944 694.944 695.8584 695.8584
321.8688 322.1736 323.6976 325.5264 327.0504 328.8792 991.2096000000001 995.7816 999.4392 1003.0967999999999 1005.8399999999999 335.28 335.28 335.28 334.6704 334.0608 333.1464 332.5368 331.6224 330.708 330.0984 329.184 328.5744 327.9648 327.66 327.3552 0.0 0.0 326.4408 326.4408 0.0 0.0 0.0 0.0 0.0 0.0 0.0 0.0 0.0 0.0 0.0 0.0 0.0 0.0 0.0 0.0 0.0 0.0 0.0 0.0 0.0 0.0 0.0 0.0 0.0 0.0 0.0 0.0 0.0 0.0 0.0 0.0 0.0 0.0 0.0 0.0 0.0 0.0 0.0 0.0 0.0 0.0 0.0 0.0 0.0 917.1432 914.4000000000001 912.5712000000001 911.6568 910.7424000000001 909.828 0.0 0.0 0.0 0.0 0.0 0.0 0.0 917.1432 918.0576000000001 918.972 918.0576000000001 914.4000000000001 909.828 905.2560000000001 901.5984000000001 897.0264 893.3688 890.6256000000001 887.8824 885.1392000000001 883.3104000000001 880.5672 878.7384 877.8240000000001 875.9952000000001 875.0808 874.1664000000001 874.1664000000001 873.252 871.4232 870.5088000000001 868.6800000000001 866.8512000000001 864.108 861.3648000000001 856.7927999999999 852.2208 846.7344 843.0768 839.4192 835.7616 833.0183999999999 831.1895999999999 828.4464 827.5319999999999 826.6176 827.5319999999999 830.2752 834.8471999999999 839.4192 844.9056 851.3063999999999 857.7072000000001 863.1936000000001 869.5944 873.252 869.5944 864.108 858.6216 852.2208 844.9056 836.6759999999999 826.6176 816.5591999999999 806.5008 798.2711999999999 790.0416 781.8119999999999 772.6679999999999 763.524 756.2088 749.808 745.236 493.776 491.9472 490.728 488.8992 487.68 730.6056 728.7768 727.8624 726.948 726.0336 725.1192 723.2904 721.4616 717.804 714.1464 710.4888 708.66 707.7456 705.9168 703.1736 700.4304 697.6872 697.6872 698.6016 698.6016 697.6872
320.04 320.3448 321.8688 324.0024 325.8312 327.3552 987.5520000000001 992.124 996.6960000000001 1001.2679999999999 1004.0111999999999 1004.9255999999999 334.9752 334.9752 334.6704 334.0608 333.4512 332.5368 331.9272 331.0128 330.0984 329.4888 328.5744 327.9648 327.66 327.0504 326.7456 0.0 325.8312 325.8312 0.0 0.0 0.0 0.0 0.0 0.0 0.0 0.0 0.0 0.0 0.0 0.0 0.0 969.2640000000001 967.4352000000001 966.5208 0.0 0.0 0.0 0.0 0.0 0.0 0.0 0.0 0.0 0.0 0.0 0.0 0.0 0.0 0.0 0.0 0.0 0.0 0.0 0.0 0.0 0.0 0.0 0.0 0.0 0.0 0.0 0.0 920.8008 918.0576000000001 915.3144 912.5712000000001 910.7424000000001 908.9136000000001 908.9136000000001 0.0 0.0 0.0 0.0 0.0 0.0 0.0 0.0 913.4856 915.3144 915.3144 911.6568 906.1704 901.5984000000001 897.9408000000001 894.2832000000001 891.54 888.7968000000001 886.0536 884.2248 881.4816000000001 879.6528000000001 877.8240000000001 876.9096 875.538 875.538 874.1664000000001 873.7092 873.252 872.3376000000001 870.5088000000001 869.5944 867.7656 865.0224000000001 862.2792 857.7072000000001 853.1351999999999 848.5632 843.9911999999999 840.3335999999999 836.6759999999999 833.9328 832.104 829.3607999999999 828.4464 828.4464 828.4464 831.1895999999999 835.7616 840.3335999999999 846.7344 854.0496 861.3648000000001 867.7656 875.0808 879.6528000000001 877.8240000000001 873.252 868.6800000000001 861.3648000000001 854.0496 845.8199999999999 835.7616 825.7031999999999 815.6448 807.4151999999999 799.1856 790.0416 780.8976 769.9248 760.7808 754.38 499.2624 496.2144 494.3856 492.5568 491.3376 490.1184 734.2632 733.3488 732.4344 731.52 730.6056 728.7768 727.8624 726.0336 721.4616 717.804 714.1464 712.3176 711.4032 710.4888 707.7456 704.088 701.3448 701.3448 702.2592 702.2592 702.7164
318.2112 318.516 320.3448 322.1736 324.3072 977.4936 982.98 988.4664 993.0384000000001 997.6104 1001.2679999999999 1002.1823999999999 1003.0967999999999 334.6704 334.3656 333.756 333.4512 332.8416 331.9272 331.3176 330.4032 329.4888 328.8792 328.2696 327.66 327.0504 326.4408 326.136 0.0 325.2216 324.9168 0.0 0.0 0.0 0.0 0.0 0.0 0.0 0.0 0.0 0.0 0.0 967.4352000000001 966.5208 965.6064000000001 963.7776000000001 962.8632 0.0 0.0 0.0 0.0 0.0 0.0 0.0 0.0 0.0 0.0 0.0 0.0 0.0 0.0 0.0 0.0 0.0 0.0 0.0 0.0 0.0 0.0 0.0 0.0 0.0 0.0 921.7152000000001 919.8864000000001 917.1432 915.3144 912.5712000000001 910.7424000000001 908.9136000000001 907.9992 0.0 0.0 0.0 0.0 0.0 0.0 0.0 0.0 0.0 0.0 909.828 906.1704 901.5984000000001 897.9408000000001 894.2832000000001 891.54 888.7968000000001 886.0536 884.2248 882.396 879.6528000000001 877.8240000000001 875.9952000000001 875.9952000000001 875.0808 875.0808 874.6236 874.1664000000001 873.252 872.3376000000001 871.4232 869.5944 867.7656 865.9368 863.1936000000001 859.5360000000001 854.9639999999999 850.392 846.7344 843.0768 839.4192 835.7616 833.0183999999999 830.2752 829.3607999999999 829.3607999999999 829.3607999999999 833.0183999999999 837.5904 842.1623999999999 849.4775999999999 857.7072000000001 865.9368 872.3376000000001 878.7384 882.396 881.4816000000001 878.7384 875.0808 868.6800000000001 861.3648000000001 853.1351999999999 843.0768 832.104 822.0455999999999 812.9015999999999 803.7575999999999 795.528 784.5552 774.4967999999999 510.2352 505.968 502.3104 499.2624 497.4336 496.2144 494.3856 493.776 739.7496 737.9208 737.0064 737.0064 736.092 734.2632 733.3488 731.52 728.7768 724.2048 721.4616 719.6328 717.804 716.8896 714.1464 710.4888 708.66 707.7456 706.8312 706.8312 707.2884
316.3824 316.6872 318.516 320.6496 968.3496 972.9216000000001 978.4080000000001 982.98 988.4664 993.0384000000001 997.6104 999.4392 1001.2679999999999 1002.1823999999999 1002.1823999999999 1001.2679999999999 1000.3535999999999 332.8416 332.232 331.6224 330.708 329.7936 328.8792 328.2696 327.66 327.0504 326.4408 325.8312 325.2216 0.0 324.612 324.0024 0.0 0.0 0.0 0.0 0.0 0.0 0.0 0.0 0.0 966.5208 964.692 963.7776000000001 962.8632 961.0344 960.1200000000001 957.3768 0.0 0.0 0.0 0.0 0.0 0.0 0.0 0.0 0.0 0.0 0.0 0.0 0.0 0.0 0.0 0.0 0.0 0.0 0.0 0.0 0.0 0.0 0.0 0.0 920.8008 919.8864000000001 918.0576000000001 916.2288000000001 914.4000000000001 912.5712000000001 909.828 907.9992 907.0848000000001 0.0 0.0 0.0 0.0 0.0 0.0 0.0 0.0 0.0 0.0 0.0 0.0 0.0 0.0 0.0 0.0 0.0 0.0 0.0 879.6528000000001 877.8240000000001 875.9952000000001 875.0808 874.1664000000001 874.1664000000001 874.1664000000001 874.3494 874.1664000000001 873.252 872.3376000000001 871.4232 870.5088000000001 868.6800000000001 866.8512000000001 864.108 861.3648000000001 857.7072000000001 854.0496 850.392 845.8199999999999 842.1623999999999 838.5047999999999 834.8471999999999 831.1895999999999 830.2752 829.818 830.2752 833.9328 838.5047999999999 844.9056 853.1351999999999 862.2792 870.5088000000001 875.9952000000001 880.5672 884.2248 884.2248 883.3104000000001 881.4816000000001 875.0808 867.7656 859.5360000000001 848.5632 837.5904 826.6176 544.9824 538.2768 532.1808 525.4752 518.7696 513.2832 509.016 505.3584 502.3104 501.0912 499.2624 498.0432 497.4336 745.236 744.3216 743.4072 742.4928 741.5784 740.664 739.7496 738.8352 736.092 732.4344 729.6912 0.0 0.0 0.0 720.5472 718.7184 715.9752 714.1464 713.232 711.4032 711.8604
314.5536 315.1632 316.992 957.3768 963.7776000000001 968.3496 973.836 978.4080000000001 983.8944000000001 989.3808000000001 993.9528 996.6960000000001 998.5248000000001 1000.3535999999999 1000.3535999999999 1000.3535999999999 999.4392 998.5248000000001 332.232 331.6224 331.0128 330.0984 329.184 328.5744 327.66 327.0504 326.4408 325.5264 324.9168 0.0 0.0 0.0 0.0 0.0 0.0 0.0 0.0 0.0 0.0 0.0 964.692 963.7776000000001 961.9488000000001 961.0344 960.1200000000001 958.2912000000001 957.3768 954.6336000000001 951.8904 0.0 0.0 0.0 0.0 0.0 0.0 0.0 0.0 0.0 0.0 0.0 0.0 0.0 0.0 0.0 0.0 0.0 0.0 0.0 0.0 0.0 0.0 921.7152000000001 919.8864000000001 918.0576000000001 916.2288000000001 915.3144 913.4856 911.6568 908.9136000000001 0.0 0.0 0.0 0.0 0.0 0.0 0.0 0.0 0.0 0.0 0.0 0.0 0.0 0.0 0.0 0.0 0.0 0.0 0.0 0.0 0.0 0.0 0.0 0.0 0.0 0.0 873.252 874.1664000000001 874.1664000000001 874.1664000000001 874.1664000000001 873.252 871.4232 870.5088000000001 869.5944 867.7656 865.9368 863.1936000000001 860.4504 856.7927999999999 853.1351999999999 849.4775999999999 845.8199999999999 841.248 836.6759999999999 833.0183999999999 832.104 831.1895999999999 831.1895999999999 835.7616 840.3335999999999 846.7344 855.8784 865.0224000000001 874.1664000000001 878.7384 881.4816000000001 885.1392000000001 886.0536 886.9680000000001 886.0536 880.5672 872.3376000000001 864.108 854.0496 842.1623999999999 554.1264 547.4208 540.7152 534.0096 527.9136 521.8176 516.3312 512.064 509.016 505.968 504.7488 503.5296 502.3104 501.7008 751.6368 750.7224 749.808 749.808 748.8936 747.9792 747.0648 746.1504 744.3216 741.5784 738.8352 737.0064 733.3488 0.0 0.0 0.0 0.0 722.376 719.6328 717.804 717.804
313.0296 313.3344 945.4896000000001 952.8048000000001 959.2056 964.692 970.1784 974.7504000000001 980.2368000000001 984.8088 990.2952 993.0384000000001 995.7816 998.5248000000001 998.5248000000001 998.5248000000001 998.5248000000001 996.6960000000001 331.9272 331.3176 330.708 330.0984 329.4888 328.5744 327.66 327.0504 326.136 325.5264 324.612 0.0 0.0 0.0 0.0 0.0 0.0 0.0 0.0 0.0 0.0 962.8632 961.9488000000001 961.0344 960.1200000000001 958.2912000000001 957.3768 955.548 954.6336000000001 951.8904 0.0 0.0 0.0 0.0 0.0 0.0 0.0 0.0 0.0 0.0 0.0 0.0 0.0 0.0 0.0 0.0 0.0 0.0 0.0 0.0 0.0 0.0 920.8008 918.972 917.1432 915.3144 913.4856 912.5712000000001 911.6568 0.0 0.0 0.0 0.0 0.0 0.0 0.0 0.0 0.0 0.0 0.0 0.0 0.0 0.0 0.0 0.0 0.0 0.0 0.0 0.0 0.0 0.0 0.0 0.0 0.0 0.0 0.0 0.0 0.0 0.0 873.252 873.252 873.7092 873.252 872.3376000000001 871.4232 870.5088000000001 868.6800000000001 867.7656 865.0224000000001 863.1936000000001 860.4504 856.7927999999999 853.1351999999999 849.4775999999999 845.8199999999999 841.248 837.5904 835.7616 833.9328 833.9328 837.5904 842.1623999999999 847.6487999999999 855.8784 865.0224000000001 873.252 877.8240000000001 881.4816000000001 885.1392000000001 886.0536 887.8824 886.9680000000001 881.4816000000001 874.1664000000001 865.9368 855.8784 844.9056 555.9552 549.2496 541.9344 535.8384 529.7424 524.256 518.7696 515.7216 512.6736 510.2352 509.016 508.4064 507.1872 507.1872 506.5776 506.5776 758.952 758.952 758.0376 758.0376 757.1232 756.2088 754.38 753.4656 751.6368 748.8936 745.236 742.4928 740.664 0.0 0.0 0.0 0.0 727.8624 726.948
933.6024 935.4312 940.9176 948.2328 955.548 961.0344 965.6064000000001 971.0928000000001 976.5792000000001 981.1512 986.6376 990.2952 993.9528 995.7816 996.6960000000001 996.6960000000001 995.7816 994.8672000000001 993.9528 0.0 0.0 0.0 329.4888 328.5744 327.66 326.7456 326.136 325.2216 0.0 0.0 0.0 0.0 0.0 0.0 0.0 0.0 0.0 0.0 961.0344 961.0344 960.1200000000001 958.2912000000001 957.3768 955.548 954.6336000000001 952.8048000000001 951.8904 0.0 0.0 0.0 0.0 0.0 0.0 0.0 0.0 0.0 0.0 0.0 0.0 0.0 0.0 0.0 0.0 0.0 0.0 0.0 0.0 0.0 0.0 918.972 918.972 916.2288000000001 913.4856 911.6568 910.7424000000001 0.0 0.0 0.0 0.0 0.0 0.0 0.0 0.0 0.0 0.0 0.0 0.0 0.0 0.0 0.0 0.0 0.0 888.7968000000001 886.9680000000001 884.2248 882.396 879.6528000000001 876.9096 875.0808 874.1664000000001 872.3376000000001 871.4232 0.0 0.0 0.0 0.0 0.0 0.0 0.0 873.252 873.252 872.3376000000001 872.3376000000001 871.4232 870.5088000000001 868.6800000000001 867.7656 865.9368 864.108 861.3648000000001 857.7072000000001 854.0496 850.392 846.7344 843.0768 840.3335999999999 837.5904 835.7616 838.5047999999999 843.0768 848.5632 855.8784 864.108 871.4232 876.9096 881.4816000000001 885.1392000000001 886.0536 886.9680000000001 886.0536 880.5672 874.1664000000001 866.8512000000001 856.7927999999999 845.8199999999999 835.7616 549.8592 543.7632 537.0576 531.5712 526.0848 521.8176 518.7696 516.3312 514.5024 513.8928 513.2832 513.2832 512.6736 0.0 0.0 769.0103999999999 769.0103999999999 769.0103999999999 768.096 768.096 767.1816 766.2672 765.3528 764.4384 761.6952 758.0376 755.2944 753.4656 752.5512 0.0 0.0 0.0 0.0 0.0
929.0304000000001 930.8592000000001 937.26 944.5752 951.8904 957.3768 961.9488000000001 967.4352000000001 972.9216000000001 977.4936 982.98 986.6376 990.2952 993.0384000000001 993.9528 993.9528 993.9528 993.0384000000001 0.0 0.0 0.0 0.0 0.0 0.0 327.66 326.7456 325.8312 325.2216 0.0 0.0 0.0 0.0 0.0 0.0 0.0 0.0 0.0 0.0 0.0 958.2912000000001 957.3768 956.4624000000001 954.6336000000001 952.8048000000001 951.8904 950.0616 949.1472000000001 0.0 0.0 0.0 0.0 0.0 0.0 0.0 933.6024 0.0 0.0 0.0 0.0 0.0 0.0 0.0 0.0 0.0 0.0 0.0 0.0 0.0 916.2288000000001 917.1432 916.2288000000001 914.4000000000001 910.7424000000001 0.0 0.0 0.0 0.0 0.0 0.0 0.0 0.0 0.0 0.0 0.0 0.0 0.0 893.3688 893.3688 892.4544000000001 890.6256000000001 889.7112 887.8824 886.0536 884.2248 882.396 879.6528000000001 876.9096 875.0808 873.252 871.4232 870.5088000000001 869.5944 868.6800000000001 867.7656 868.6800000000001 870.5088000000001 0.0 0.0 0.0 0.0 0.0 0.0 872.3376000000001 872.3376000000001 871.4232 870.5088000000001 869.5944 868.6800000000001 866.8512000000001 864.108 861.3648000000001 857.7072000000001 854.0496 851.3063999999999 847.6487999999999 844.9056 841.248 839.4192 841.248 844.9056 849.4775999999999 855.8784 863.1936000000001 870.5088000000001 875.0808 880.5672 884.2248 885.1392000000001 886.0536 884.2248 879.6528000000001 873.252 865.9368 856.7927999999999 846.7344 836.6759999999999 551.0784 544.9824 538.2768 533.4 528.5232 524.8656 522.4272 520.5984 519.3792 518.7696 518.7696 0.0 0.0 779.0688 779.0688 779.0688 779.9831999999999 779.9831999999999 779.9831999999999 779.0688 779.0688 779.0688 778.1543999999999 777.24 774.4967999999999 771.7536 769.0103999999999 767.1816 765.3528 763.524 758.952 0.0 0.0 0.0
925.3728000000001 927.2016000000001 933.6024 940.9176 948.2328 953.7192 959.2056 964.692 969.2640000000001 973.836 979.3224 982.98 986.6376 989.3808000000001 990.2952 990.2952 991.2096000000001 991.2096000000001 0.0 0.0 0.0 0.0 0.0 0.0 0.0 326.7456 325.8312 325.2216 324.3072 0.0 0.0 0.0 0.0 0.0 0.0 0.0 0.0 0.0 0.0 956.4624000000001 955.548 953.7192 951.8904 950.0616 949.1472000000001 948.2328 946.404 0.0 0.0 0.0 0.0 0.0 0.0 934.5168000000001 932.6880000000001 930.8592000000001 0.0 0.0 0.0 0.0 0.0 0.0 0.0 0.0 0.0 0.0 0.0 0.0 0.0 0.0 0.0 0.0 0.0 0.0 0.0 0.0 0.0 0.0 0.0 0.0 0.0 0.0 0.0 893.3688 892.4544000000001 891.54 890.6256000000001 889.7112 888.7968000000001 887.8824 886.9680000000001 885.1392000000001 883.3104000000001 881.4816000000001 879.6528000000001 877.8240000000001 875.0808 872.3376000000001 870.5088000000001 869.5944 868.6800000000001 868.2228 866.8512000000001 866.8512000000001 867.7656 868.6800000000001 869.5944 870.5088000000001 871.4232 0.0 0.0 0.0 0.0 0.0 0.0 869.5944 869.5944 868.6800000000001 867.7656 865.9368 863.1936000000001 860.4504 857.7072000000001 854.9639999999999 852.2208 849.4775999999999 845.8199999999999 844.9056 845.8199999999999 849.4775999999999 852.2208 857.7072000000001 863.1936000000001 868.6800000000001 873.252 876.9096 880.5672 881.4816000000001 881.4816000000001 880.5672 875.9952000000001 869.5944 863.1936000000001 854.0496 844.9056 835.7616 826.6176 545.592 540.1056 535.8384 531.5712 528.5232 527.304 526.0848 525.4752 0.0 0.0 0.0 790.9559999999999 790.9559999999999 791.8704 791.8704 792.7847999999999 793.6992 793.6992 793.6992 793.6992 793.6992 792.7847999999999 791.8704 789.1271999999999 786.384 783.6407999999999 780.8976 779.0688 776.3255999999999 772.6679999999999 768.096 765.3528 0.0
922.6296 923.5440000000001 929.9448 937.26 944.5752 950.0616 956.4624000000001 961.9488000000001 966.5208 971.0928000000001 974.7504000000001 0.0 0.0 984.8088 985.7232000000001 986.6376 987.5520000000001 988.4664 0.0 0.0 0.0 0.0 0.0 0.0 0.0 0.0 326.136 325.2216 324.612 0.0 0.0 0.0 0.0 0.0 0.0 0.0 0.0 0.0 0.0 954.6336000000001 952.8048000000001 950.9760000000001 950.0616 948.2328 946.404 945.4896000000001 944.5752 0.0 0.0 0.0 0.0 0.0 935.4312 933.6024 931.7736 929.9448 929.0304000000001 0.0 0.0 0.0 0.0 0.0 0.0 0.0 0.0 0.0 0.0 0.0 0.0 0.0 0.0 0.0 0.0 0.0 0.0 0.0 0.0 0.0 0.0 0.0 0.0 0.0 892.4544000000001 891.54 889.7112 888.7968000000001 887.8824 886.9680000000001 886.0536 885.1392000000001 883.3104000000001 882.396 880.5672 879.6528000000001 877.8240000000001 875.0808 873.252 870.5088000000001 869.5944 868.6800000000001 868.2228 868.1313 866.577 866.394 866.3025 866.8512000000001 867.7656 868.6800000000001 869.5944 870.5088000000001 870.5088000000001 290.1696 0.0 0.0 0.0 0.0 0.0 0.0 868.6800000000001 866.8512000000001 865.0224000000001 863.1936000000001 860.4504 857.7072000000001 855.8784 853.1351999999999 852.2208 850.392 852.2208 853.1351999999999 855.8784 859.5360000000001 864.108 867.7656 870.5088000000001 873.252 875.9952000000001 875.9952000000001 875.9952000000001 875.0808 870.5088000000001 865.0224000000001 859.5360000000001 851.3063999999999 843.0768 834.8471999999999 826.6176 545.592 541.3248 537.6672 535.2288 533.4 532.1808 532.1808 0.0 0.0 801.0144 802.8432 802.8432 803.7575999999999 804.672 805.5863999999999 807.4151999999999 808.3296 809.2439999999999 809.2439999999999 809.2439999999999 809.2439999999999 808.3296 806.5008 804.672 801.9287999999999 799.1856 795.528 791.8704 789.1271999999999 786.384 783.6407999999999 781.8119999999999 780.8976
918.0576000000001 919.8864000000001 926.2872 933.6024 940.9176 947.3184000000001 952.8048000000001 958.2912000000001 962.8632 967.4352000000001 0.0 0.0 977.4936 980.2368000000001 982.0656000000001 982.98 984.8088 985.7232000000001 0.0 0.0 0.0 0.0 0.0 0.0 0.0 0.0 0.0 325.2216 0.0 0.0 0.0 0.0 0.0 0.0 0.0 0.0 0.0 0.0 0.0 952.8048000000001 950.9760000000001 950.0616 948.2328 946.404 944.5752 943.6608000000001 942.7464 940.9176 0.0 0.0 0.0 0.0 0.0 932.6880000000001 930.8592000000001 929.0304000000001 928.116 927.2016000000001 0.0 0.0 0.0 0.0 0.0 0.0 0.0 0.0 0.0 0.0 0.0 0.0 0.0 0.0 0.0 0.0 0.0 0.0 0.0 0.0 0.0 0.0 0.0 892.4544000000001 890.6256000000001 888.7968000000001 886.9680000000001 885.1392000000001 884.2248 884.2248 883.3104000000001 882.396 880.5672 879.6528000000001 877.8240000000001 876.9096 875.0808 873.252 872.3376000000001 869.5944 869.1372 868.2228 868.1313 867.7656 866.211 866.3025 866.211 865.9368 866.8512000000001 867.7656 867.7656 868.6800000000001 869.5944 869.5944 290.1696 290.1696 289.8648 0.0 0.0 0.0 0.0 867.7656 866.8512000000001 865.0224000000001 863.1936000000001 860.4504 858.6216 857.7072000000001 856.7927999999999 855.8784 856.7927999999999 857.7072000000001 858.6216 861.3648000000001 864.108 866.8512000000001 868.6800000000001 870.5088000000001 871.4232 871.4232 871.4232 870.5088000000001 865.9368 861.3648000000001 855.8784 848.5632 841.248 833.9328 826.6176 820.2167999999999 543.1536 540.7152 538.8864 537.6672 538.2768 0.0 0.0 811.0727999999999 812.9015999999999 814.7303999999999 815.6448 816.5591999999999 817.4736 819.3024 821.1312 822.96 823.8743999999999 824.7888 825.7031999999999 824.7888 823.8743999999999 822.0455999999999 819.3024 816.5591999999999 813.816 810.1584 805.5863999999999 801.9287999999999 800.0999999999999 798.2711999999999 796.4423999999999 796.4423999999999
913.4856 915.3144 921.7152000000001 929.9448 937.26 943.6608000000001 949.1472000000001 954.6336000000001 959.2056 963.7776000000001 968.3496 0.0 973.836 975.6648 977.4936 979.3224 981.1512 982.0656000000001 982.98 0.0 0.0 0.0 0.0 0.0 0.0 0.0 0.0 0.0 0.0 0.0 0.0 0.0 0.0 0.0 0.0 0.0 0.0 0.0 0.0 952.8048000000001 950.9760000000001 950.0616 948.2328 946.404 944.5752 942.7464 941.8320000000001 940.0032000000001 939.0888 0.0 0.0 0.0 933.6024 931.7736 929.9448 929.0304000000001 928.116 926.2872 925.3728000000001 0.0 0.0 0.0 0.0 0.0 0.0 0.0 0.0 0.0 0.0 0.0 0.0 0.0 0.0 0.0 0.0 0.0 0.0 0.0 0.0 0.0 0.0 891.54 889.7112 886.9680000000001 885.1392000000001 883.3104000000001 881.4816000000001 881.4816000000001 879.6528000000001 878.7384 877.8240000000001 0.0 0.0 0.0 0.0 0.0 0.0 0.0 0.0 0.0 868.0398 866.8512000000001 866.1197999999999 866.211 866.1197999999999 865.7538000000001 865.9368 865.9368 866.8512000000001 867.7656 868.6800000000001 869.5944 289.8648 289.8648 289.8648 289.8038 289.7734 0.0 0.0 0.0 867.7656 865.9368 865.0224000000001 863.1936000000001 861.3648000000001 860.4504 859.5360000000001 859.5360000000001 859.5360000000001 860.4504 860.4504 862.2792 864.108 865.9368 866.8512000000001 867.7656 868.6800000000001 868.6800000000001 867.7656 866.8512000000001 862.2792 857.7072000000001 853.1351999999999 846.7344 840.3335999999999 833.9328 828.4464 822.96 546.2016 544.9824 543.7632 543.7632 0.0 0.0 820.2167999999999 822.0455999999999 824.7888 826.6176 828.4464 830.2752 832.104 834.8471999999999 837.5904 840.3335999999999 841.248 842.1623999999999 842.1623999999999 841.248 839.4192 837.5904 834.8471999999999 831.1895999999999 827.5319999999999 823.8743999999999 819.3024 815.6448 813.816 811.9872 810.1584 810.1584
907.0848000000001 908.9136000000001 917.1432 926.2872 934.5168000000001 940.9176 945.4896000000001 950.9760000000001 955.548 961.0344 965.6064000000001 968.3496 970.1784 972.0072 973.836 975.6648 977.4936 978.4080000000001 980.2368000000001 981.1512 0.0 0.0 0.0 0.0 0.0 0.0 0.0 0.0 0.0 0.0 0.0 0.0 0.0 0.0 0.0 0.0 0.0 0.0 0.0 0.0 951.8904 950.0616 948.2328 946.404 944.5752 942.7464 940.9176 940.0032000000001 938.1744000000001 937.26 935.4312 934.5168000000001 932.6880000000001 931.7736 929.9448 929.0304000000001 927.2016000000001 927.2016000000001 925.3728000000001 923.5440000000001 921.7152000000001 0.0 0.0 0.0 0.0 0.0 902.5128 0.0 0.0 0.0 0.0 0.0 0.0 0.0 0.0 0.0 0.0 0.0 0.0 0.0 892.4544000000001 890.6256000000001 887.8824 886.0536 883.3104000000001 880.5672 879.6528000000001 877.8240000000001 0.0 0.0 0.0 0.0 0.0 0.0 0.0 0.0 0.0 0.0 0.0 0.0 0.0 866.394 866.0283000000001 866.1197999999999 866.0283000000001 865.5711000000001 865.5711000000001 865.7538000000001 865.9368 866.8512000000001 867.7656 868.6800000000001 868.6800000000001 869.5944 289.8648 289.8648 289.8648 0.0 0.0 0.0 867.7656 866.8512000000001 865.9368 865.0224000000001 863.1936000000001 863.1936000000001 862.2792 861.3648000000001 862.2792 862.2792 862.2792 863.1936000000001 864.108 865.0224000000001 865.9368 865.9368 865.9368 865.9368 865.0224000000001 863.1936000000001 859.5360000000001 854.9639999999999 850.392 844.9056 839.4192 833.9328 830.2752 551.0784 549.2496 549.2496 0.0 0.0 826.6176 828.4464 831.1895999999999 833.9328 836.6759999999999 839.4192 841.248 843.9911999999999 846.7344 850.392 854.0496 856.7927999999999 858.6216 859.5360000000001 859.5360000000001 858.6216 855.8784 853.1351999999999 849.4775999999999 845.8199999999999 841.248 837.5904 833.9328 830.2752 827.5319999999999 824.7888 823.8743999999999 822.96
901.5984000000001 903.4272000000001 911.6568 921.7152000000001 929.9448 936.3456000000001 940.9176 946.404 951.8904 957.3768 961.9488000000001 964.692 966.5208 968.3496 970.1784 972.0072 973.836 975.6648 976.5792000000001 978.4080000000001 978.4080000000001 0.0 0.0 0.0 0.0 0.0 0.0 0.0 0.0 0.0 0.0 0.0 0.0 0.0 0.0 0.0 0.0 0.0 0.0 0.0 0.0 950.9760000000001 949.1472000000001 947.3184000000001 945.4896000000001 942.7464 940.9176 939.0888 938.1744000000001 936.3456000000001 935.4312 933.6024 932.6880000000001 930.8592000000001 929.9448 928.116 927.2016000000001 926.2872 925.3728000000001 922.6296 919.8864000000001 916.2288000000001 0.0 0.0 0.0 902.0556 901.5984000000001 901.5984000000001 901.5984000000001 0.0 0.0 0.0 0.0 0.0 0.0 0.0 0.0 0.0 0.0 0.0 0.0 889.7112 886.9680000000001 884.2248 0.0 0.0 0.0 0.0 0.0 0.0 0.0 0.0 0.0 0.0 0.0 0.0 0.0 0.0 0.0 0.0 0.0 0.0 0.0 0.0 0.0 0.0 865.4796 865.5711000000001 865.4796 865.9368 866.8512000000001 867.7656 868.6800000000001 868.6800000000001 289.8648 289.8648 290.0172 0.0 0.0 0.0 0.0 867.7656 866.8512000000001 865.9368 865.9368 865.0224000000001 864.108 864.108 864.108 864.108 864.108 864.108 864.108 865.0224000000001 865.0224000000001 865.0224000000001 864.108 863.1936000000001 862.2792 860.4504 856.7927999999999 853.1351999999999 848.5632 843.9911999999999 839.4192 834.8471999999999 555.3456 554.1264 0.0 0.0 0.0 833.0183999999999 835.7616 839.4192 842.1623999999999 844.9056 847.6487999999999 851.3063999999999 854.0496 856.7927999999999 860.4504 865.0224000000001 869.5944 873.252 875.0808 875.9952000000001 875.9952000000001 874.1664000000001 871.4232 867.7656 864.108 858.6216 854.9639999999999 850.392 846.7344 843.0768 841.248 838.5047999999999 836.6759999999999 836.6759999999999
894.2832000000001 896.1120000000001 904.3416 914.4000000000001 922.6296 929.0304000000001 934.5168000000001 940.0032000000001 946.404 951.8904 956.4624000000001 960.1200000000001 962.8632 965.6064000000001 967.4352000000001 969.2640000000001 971.0928000000001 972.0072 973.836 975.6648 975.6648 0.0 0.0 0.0 0.0 0.0 0.0 0.0 0.0 0.0 0.0 0.0 0.0 0.0 0.0 0.0 0.0 0.0 0.0 0.0 953.7192 951.8904 950.0616 948.2328 946.404 943.6608000000001 941.8320000000001 940.0032000000001 938.1744000000001 936.3456000000001 934.5168000000001 933.6024 931.7736 930.8592000000001 929.9448 928.116 927.2016000000001 925.3728000000001 924.4584 920.8008 918.0576000000001 914.4000000000001 909.828 0.0 0.0 0.0 0.0 900.684 900.684 899.7696000000001 0.0 0.0 0.0 0.0 0.0 0.0 0.0 0.0 0.0 0.0 0.0 0.0 0.0 0.0 0.0 0.0 0.0 0.0 0.0 0.0 0.0 0.0 0.0 0.0 0.0 0.0 0.0 0.0 0.0 0.0 0.0 0.0 0.0 0.0 0.0 0.0 0.0 0.0 865.3880999999999 865.9368 866.8512000000001 866.8512000000001 867.7656 289.56 289.56 289.8648 289.8648 0.0 0.0 0.0 0.0 0.0 0.0 0.0 866.8512000000001 865.9368 865.9368 865.0224000000001 865.0224000000001 865.0224000000001 865.0224000000001 865.0224000000001 865.0224000000001 865.0224000000001 865.0224000000001 864.108 863.1936000000001 862.2792 860.4504 858.6216 855.8784 852.2208 847.6487999999999 843.9911999999999 840.3335999999999 558.3936 0.0 0.0 0.0 837.5904 840.3335999999999 842.1623999999999 845.8199999999999 849.4775999999999 852.2208 855.8784 859.5360000000001 862.2792 865.9368 869.5944 873.252 878.7384 884.2248 888.7968000000001 889.7112 889.7112 889.7112 886.9680000000001 884.2248 880.5672 875.9952000000001 870.5088000000001 865.9368 862.2792 858.6216 854.9639999999999 853.1351999999999 852.2208 851.3063999999999 850.392
886.9680000000001 888.7968000000001 896.1120000000001 905.2560000000001 914.4000000000001 921.7152000000001 928.116 934.5168000000001 940.0032000000001 945.4896000000001 950.9760000000001 954.6336000000001 959.2056 961.9488000000001 964.692 966.5208 967.4352000000001 969.2640000000001 971.0928000000001 972.9216000000001 972.9216000000001 0.0 0.0 0.0 0.0 0.0 0.0 0.0 0.0 0.0 0.0 0.0 0.0 0.0 0.0 0.0 0.0 0.0 0.0 956.4624000000001 954.6336000000001 952.8048000000001 951.8904 949.1472000000001 947.3184000000001 944.5752 941.8320000000001 940.0032000000001 938.1744000000001 936.3456000000001 934.5168000000001 932.6880000000001 931.7736 930.8592000000001 929.0304000000001 928.116 926.2872 924.4584 922.6296 918.972 915.3144 912.5712000000001 908.9136000000001 0.0 0.0 901.5984000000001 900.684 899.7696000000001 898.8552 898.8552 898.8552 0.0 0.0 0.0 0.0 0.0 0.0 0.0 0.0 0.0 0.0 0.0 0.0 0.0 0.0 0.0 0.0 0.0 0.0 0.0 0.0 0.0 0.0 0.0 0.0 0.0 0.0 0.0 0.0 0.0 0.0 0.0 0.0 0.0 0.0 0.0 0.0 288.6456 288.4018 288.4932 288.6456 288.9504 289.2552 289.2552 289.56 289.56 289.8648 289.8648 289.9258 0.0 0.0 0.0 0.0 0.0 0.0 0.0 0.0 866.8512000000001 866.8512000000001 866.8512000000001 866.8512000000001 866.8512000000001 865.9368 865.9368 865.0224000000001 864.108 863.1936000000001 861.3648000000001 859.5360000000001 857.7072000000001 854.9639999999999 851.3063999999999 847.6487999999999 844.9056 0.0 0.0 0.0 841.248 843.0768 845.8199999999999 848.5632 852.2208 855.8784 859.5360000000001 863.1936000000001 866.8512000000001 870.5088000000001 874.1664000000001 877.8240000000001 881.4816000000001 886.0536 891.54 897.9408000000001 902.5128 903.4272000000001 903.4272000000001 902.5128 898.8552 895.1976 891.54 886.9680000000001 881.4816000000001 876.9096 873.252 869.5944 866.8512000000001 865.9368 865.9368 865.9368 865.9368
